# .PCD v0.7 - Point Cloud Data file format
VERSION 0.7
FIELDS x y z
SIZE 4 4 4
TYPE F F F
COUNT 1 1 1
WIDTH 1325
HEIGHT 1
VIEWPOINT 0 0 0 1 0 0 0
POINTS 1325
DATA ascii
0.022005014 0.10587804 0.29862058
0.052497461 -0.087881088 0.077119097
-0.16619536 -0.036919087 0.1418107
0.17940497 -0.029431779 0.047072858
-0.2096867 0.15493451 0.044852488
-0.023476321 0.0077295909 -0.050020754
0.046271659 0.11215999 -0.040109113
0.0078089461 -0.18800917 0.10580675
-0.23216891 -0.17262709 -0.08382564
-0.048066322 -0.16603708 0.085123241
-0.088888973 -0.0028144419 -0.054990232
-0.060428001 -0.1219302 0.19451368
0.08486671 0.023732129 0.061576035
-0.095636964 -0.17372164 0.072020508
-0.094006337 0.20947161 -0.1396381
-0.039428949 0.039042022 -0.0082195252
0.093665622 0.085474923 -0.01728826
-0.038935196 -0.015399932 0.053127524
0.035498831 -0.17886911 0.080222145
-0.0063866414 0.067001253 0.061074145
-0.10658975 -0.27570629 0.059433818
-0.1058636 0.12791348 0.024566256
0.024493789 -0.14767976 0.19212705
0.090428606 0.17365016 -0.14062995
-0.0087949634 -0.059973128 0.17637974
0.06980212 0.078006968 0.027958684
-0.019707251 -0.12101237 0.07903526
-0.111681 0.0010720864 -0.030588888
-0.1154847 0.063021757 0.089331329
-0.16085517 0.045182481 0.10686009
-0.13983172 0.20229079 0.039218493
-0.11026565 0.035375521 -0.0029345714
0.039395317 -0.001333979 -0.020878337
0.055780284 0.11952612 0.11711046
-0.021128191 0.032883242 0.1905995
-0.1410553 -0.02335714 0.059827071
-0.091961071 -0.15580796 0.083845422
-0.0087251272 -0.073530488 -0.065399133
0.16023663 -0.0060486943 -0.22245635
0.055303529 0.087225743 0.18084635
0.0047377795 0.16693045 0.17151925
0.005292654 0.055003185 0.018111318
-0.11191726 0.17389868 0.031540103
0.0082768425 0.058657549 0.039061841
0.014234379 0.048837498 -0.091492631
0.11179957 0.013720665 -0.11399999
-0.026578411 -0.10340364 -0.00082400441
-0.050053172 0.018888276 -0.0035349205
-0.12340683 -0.099178508 -0.21423475
0.14628363 0.22385257 0.11730528
0.0064344816 -0.14154488 0.055236805
0.076306351 0.094981648 0.072270818
0.01434198 0.047670215 0.055519529
-0.010199968 -0.12398008 -0.0027728453
0.015575524 -0.084385253 0.17203835
0.014876119 -0.039995991 -0.086973518
-0.0077375825 -0.11922202 0.02820161
0.039882857 -0.024538334 -0.052809395
0.039796699 -0.075496383 -0.086013235
-0.026141915 -0.049488377 0.25256431
0.16517885 0.16015151 0.15131547
-0.003231138 0.063653521 0.065178052
-0.083314687 0.0053651556 -0.0063844919
0.061535656 0.037888169 0.22024809
0.059555195 0.030043323 -0.1149644
0.1184944 -0.14897722 0.23708585
-0.0086965226 -0.1455355 0.078173235
-0.033544216 -0.049364861 0.17002563
0.078792043 -0.0051517226 0.11195976
0.0078483839 -0.11779528 -0.024249233
-0.22456168 -0.14632405 -0.012397468
0.089735195 0.057852834 -0.11158353
0.14621776 -0.15824097 0.087601937
0.063618936 0.062691472 0.059696183
-0.062390186 0.025585139 0.20045364
0.22838137 0.036183205 0.037336968
0.10366563 -0.054699697 -0.091378413
0.077626064 -0.15412097 0.13055547
-0.10056797 0.05473426 0.20680857
-0.17888258 -0.28557467 0.15266255
0.087534554 0.16914004 -0.13499621
0.14183259 -0.027877457 0.009269543
0.13251352 -0.060882557 -0.19081435
-0.054569058 0.047381788 0.050702617
0.084365532 0.12744805 -0.029159829
-0.0021342933 -0.024979506 -0.040052872
-0.06182361 -0.07767608 0.00079761632
0.2921094 -0.022777399 -0.045673825
-0.059141852 -0.023201605 -0.037759773
0.037846066 -0.1469667 0.096502498
-0.064479321 0.024586529 0.13653101
0.094635919 -0.021256922 0.10986779
-0.13564675 -0.0411539 0.23869385
-0.0051977262 0.039369076 0.10487521
-0.055224292 -0.065925568 0.031404108
0.045323513 -0.18105195 0.1194458
0.029823534 -0.029752269 0.20845875
-0.075178295 0.014591467 -0.094995819
-0.0025042444 0.017383475 0.21938787
0.01075029 0.12629263 0.18946514
0.2541087 -0.2223109 0.11531436
0.19326243 -0.15727571 -0.17189811
0.10005937 0.028459456 0.061077133
0.030185115 -0.091347724 0.13305733
-0.061126299 -0.035556309 -0.067573786
-0.044286817 0.061818779 -0.057796039
0.1063555 -0.069836669 0.20093042
-0.047612913 -0.0053742006 -0.068375759
-0.170072 0.089760259 0.17976546
0.0043359473 0.078704521 0.084126025
-0.050739501 0.077305965 0.20471367
-0.12514988 0.03859828 0.018621068
-0.011317525 -0.031436753 -0.012204945
0.037655465 0.081862934 0.10716142
-0.01427823 -0.06600339 -0.2043896
0.044603195 -0.071316682 0.010517601
0.025666188 0.049867734 0.014153603
-0.056886826 0.024401538 -0.19561313
-0.018350147 0.090037391 0.035745941
-0.027970485 -0.051628567 0.16201515
0.12405418 -0.29649854 0.11742959
0.054323219 -0.26224059 -0.063936844
-0.068667501 0.0050583147 0.14447537
0.031267021 -0.12917323 -0.1157748
-0.018417858 -0.10630186 -0.14862855
0.016291134 0.12419054 -0.063750982
-0.11683926 -0.015954226 -0.12512796
-0.12620987 0.0023876205 -0.14484951
0.033471979 -0.0029303133 -0.077861294
-0.065139726 0.017170271 0.045737803
0.11668243 -0.076911733 0.1323892
-0.010927331 -0.09057907 0.071290307
-0.1270541 -0.23935995 -0.023716167
-0.02653043 0.169074 -0.053711943
-0.092137113 -0.074014723 0.066698782
-0.14936826 0.033969842 -0.094211027
-0.058701292 0.090794288 0.087886326
0.073066279 -0.060172319 -0.017366996
0.11125128 0.030665848 0.13029644
0.033393435 0.034005407 0.062334076
0.1012504 -0.036639411 -0.063069828
-0.15034193 0.06120564 -0.099460408
-0.1970875 0.16242161 0.0084473398
0.11283647 0.03952688 0.22651768
0.088617414 0.18540825 0.091446839
-0.028566089 -0.14238359 -0.055494711
0.20411937 -0.096935466 0.077265404
0.014908776 -0.079006642 0.2274545
0.068351671 -0.062253248 0.028955223
-0.069108471 -0.12996219 -0.12510712
-0.0064179562 0.041922409 0.063079916
0.16831677 -0.093806937 -0.059940621
0.09405645 0.031786919 0.021476012
0.10108522 -0.14804737 0.15315032
0.05411185 -0.10775092 0.070349321
-0.039514676 -0.024747193 0.083617657
0.10458752 -0.19514383 0.075448811
-0.14151713 -0.042918019 0.21174799
0.071413979 0.10476224 0.17853308
0.017881703 0.033589981 0.07001628
-0.05470461 0.058460638 0.12304291
0.11877112 0.0016115308 -0.014626099
-0.10521933 -0.05680402 0.32432684
0.055589035 -0.14066693 0.076371312
0.10825457 -0.1720818 0.088578954
-0.21376739 -0.079344153 0.016917862
-0.089596391 -0.11154185 0.20622538
0.11300044 0.021621114 0.095011033
0.018547915 -0.096779458 -0.12138355
0.050836597 -0.17053749 0.31900215
0.091139451 -0.21798846 0.087422848
0.091809258 -0.093475387 0.061389688
-0.20947725 0.16755778 0.07465256
-0.038901731 0.18801044 -0.22859161
0.15993202 -0.28775617 0.12368155
0.21570793 0.0043763025 0.11907502
-0.10350887 -0.070088208 0.19885731
0.099404618 -0.010306746 -0.11924556
0.015621297 -0.073958449 0.060440164
-0.0091480203 -0.13157809 0.0071083382
0.0067037442 0.0083108703 -0.040053476
-0.035140667 0.010511689 -0.018896515
-0.081946939 0.084185831 0.14478107
-0.0047223344 -0.18311849 0.033040144
0.075336933 0.039993405 -0.19351125
-0.033526171 0.029599618 0.12282243
0.27997127 0.2370958 0.10495012
0.12571046 -0.10043941 0.17626151
0.071978733 0.025992604 -0.10309605
0.008918386 0.16774878 -0.0036985762
-0.13112752 -0.14735973 0.11738078
0.018869292 -0.12853865 0.36808914
-0.1839292 -0.031014331 0.088933684
-0.021361556 -0.072011255 0.015508961
-0.021581016 -0.037448999 0.19231102
0.06125455 -0.0026370063 0.049516995
0.027925435 -0.13735108 0.24450763
0.078319721 0.036941715 0.025588155
0.039217763 -0.12775579 0.06802801
0.0037365109 0.068632752 0.10858436
0.041129909 -0.14336833 0.31555313
0.11483191 0.11330104 0.094016172
-0.054680619 -0.013278339 0.2058202
0.0056153312 0.011504647 0.075532854
0.085670821 -0.068011545 0.0089292824
0.1353873 0.011199966 0.25446162
0.10783641 -0.1130143 -0.080542043
0.20151767 -0.04693481 0.12296738
0.1032638 -0.15158644 -0.10115577
-0.070026807 0.066371016 -0.1092782
0.037882634 -0.16202602 -0.050411671
0.076507926 0.12730771 -0.0070543811
-0.12857647 0.16753063 -0.029685229
0.10444915 -0.055996828 0.22985147
-0.11821514 0.026088826 0.060912795
0.11456491 -0.10540649 -0.14181051
0.12229551 0.096935496 0.081088185
-0.055227757 -0.14679208 -0.017818965
0.050117671 0.039565288 0.16571483
-0.05811676 -0.10103852 -0.0049678572
-0.29124206 0.044388473 -0.23378332
0.14765716 0.13098009 0.02107569
0.078089856 0.061761048 0.042390127
-0.29082438 0.036803558 0.078917354
0.14881936 -0.062987238 0.06805893
-0.095005594 0.10317023 0.060667574
0.11789043 0.16706741 0.1299122
-0.047070533 0.011127712 -0.10801354
-0.053667568 0.18667433 0.060363844
0.058688916 -0.054224737 -0.059851009
-0.012446348 -0.078702077 -0.025270289
-0.10200965 -0.026959937 0.055626228
-0.13087165 -0.10776201 -0.10727726
0.088881679 0.11385584 -0.015880041
0.17902273 -0.081339367 0.28526077
0.05119257 0.072765321 0.038113274
-0.15029781 -0.20215292 0.032882266
0.09173283 0.086272188 0.16680342
-0.025119841 -0.04648114 -0.073946998
-0.10571361 -0.20111287 -0.023264457
0.096895069 0.088077523 -0.0041179582
-0.083399966 0.11336368 -0.10987879
0.004999958 -0.11682921 -0.0389737
-0.0013100542 0.043789621 0.043301195
-0.011678952 -0.22170542 0.12317547
0.14221653 -0.058478706 0.29081267
-0.10675751 0.0448636 0.051670283
0.094190672 0.11676918 0.055837702
-0.082455166 -0.045900632 -0.14616802
-0.021034183 -0.074562222 -0.025392033
0.019854115 0.1224023 0.051710293
-0.0047656298 -0.057812341 0.01047869
0.041061051 -0.13940226 0.23864661
0.213489 0.14308736 0.079777233
0.069953986 -0.13672292 0.2300708
0.022406954 0.0065682009 0.10421991
-0.039318025 -0.065860942 0.16242516
0.13440712 -0.037338123 0.22352509
-0.12795264 0.038657963 0.15501243
-0.09282431 0.20239307 0.089254275
0.070520036 -0.0055950955 0.12525985
-0.073908947 0.050933182 0.1758313
0.073195174 0.057519257 -0.0045502484
0.01470438 -0.049357496 0.13504118
0.057883285 0.019547664 0.013378125
-0.071641155 -0.15187955 -0.246429
0.091306292 -0.026067626 0.20802358
0.049442247 0.015753075 -0.03565152
0.12725827 -0.12431625 0.21353441
-0.0016240329 0.024279177 0.24645728
-0.071453251 0.035636429 -0.12440433
0.026461035 -0.001480828 -0.064591549
0.14343174 0.080132134 -0.0069608651
0.10951298 0.032246605 -0.02661692
0.16079226 -0.025164366 -0.057354279
-0.029519428 0.11406731 0.16163123
0.017836481 0.094606243 0.018683435
0.043101911 -0.23686408 0.068562835
0.058533639 -0.24560334 0.13506767
-0.001385184 0.11244748 0.021688191
-0.07332024 0.052502923 -0.013723392
-0.10001099 0.11182004 -0.1065089
-0.085112415 0.13254194 0.036885597
-0.0046706423 -0.24710862 0.21416679
0.022785418 -0.07198967 -0.024410117
-0.06841699 0.093159102 0.020565227
-0.13968356 -0.20549485 -0.067784294
0.082499653 -0.21577299 0.30957478
0.079674102 -0.06263569 0.025946513
-0.034563862 0.079433531 0.26947641
0.12450409 -0.085152544 -0.17293541
0.13870421 -0.054078065 0.071851313
-0.043603063 0.22289793 -0.11265256
0.13513204 0.080046386 0.06673345
-0.010520634 -0.22622579 0.064471722
0.051706012 0.14266616 0.035647601
-0.082828417 0.097871281 0.16788641
0.097856857 -0.1207206 0.26927564
-0.078828968 -0.060159564 -0.070803963
-0.082779899 -0.094231963 0.1609523
-0.1567952 -0.054440673 0.14039148
-0.054641128 -0.1680084 0.022549342
0.022292025 -0.063463002 0.018947233
0.036297999 0.022545502 -0.0001704134
0.30339301 0.12976924 0.16849744
-0.058923148 0.015931757 -0.042406097
-0.12037625 -0.054298908 -0.084170483
-0.14161868 0.07352417 0.023969546
0.18541563 -0.045833532 0.15544567
-0.065546811 0.041302081 -0.029856786
-0.081764065 0.18114874 -0.093823373
0.021970514 -0.088729128 0.0012582913
-0.01295355 -0.18012817 0.075615741
0.012559246 0.057369411 0.029613776
-0.22107619 -0.030873455 0.028478995
0.038992617 -0.14452928 0.18375568
-0.094524324 -0.16419332 -0.074760638
-0.096214205 -0.04303699 0.18836135
0.13788612 0.011912001 0.036875777
0.021234673 -0.10650142 0.18978861
0.15776515 -0.0095786201 0.042155925
0.21413141 0.029090496 0.057440694
-0.20837247 -0.15666348 0.14648061
-0.011694405 -0.086203806 -0.020760112
0.055383224 -0.068976238 0.05695501
-0.014038289 0.13178156 -0.0099230446
0.02867895 -0.016593322 -0.077795297
-0.10383704 -0.22196186 -0.033696264
-0.03854451 0.051086068 -0.061684303
0.055103984 0.05504702 0.094518229
0.045402996 -0.080752902 -0.0037608221
-0.057424899 -0.1902436 -0.15459216
-0.055850912 -0.0027293973 -0.027328894
-0.25317582 0.050136205 0.01100833
0.068466254 -0.015454266 -0.060246501
-0.027586622 0.011957981 0.089266568
0.023958616 -0.052020427 0.18039191
-0.040596873 -0.24103563 0.015533656
0.063403316 -0.093643263 -0.13636553
0.11009394 -0.042163335 0.061542161
-0.059617423 -0.073597461 0.16172013
0.059323706 0.011048675 -0.018196307
0.029739447 0.070968598 0.122345
-0.10293655 -0.045338575 0.13638596
-0.018295906 -0.036929939 0.022217836
0.0033833385 -0.10318099 0.099889129
-0.1496872 -0.2630693 0.099612825
0.054535005 0.18845092 -0.084648594
-0.12322517 0.034229528 0.20200625
-0.085491762 0.097647302 0.073687345
-0.0035815258 0.172994 -0.0099311341
0.10307464 -0.021256633 0.10876889
-0.091841958 0.12618504 -0.10099385
0.06104951 -0.11690573 -0.15731098
-0.05357191 -0.12885362 0.12933157
-0.16478887 0.036895249 0.19638105
0.010761132 -0.044424951 0.11739378
0.051109537 -0.1660175 0.096348986
-0.16433124 0.24739918 -0.15634915
-0.080596909 0.042492084 -0.070019066
-0.13551322 -0.0039797872 -0.17894393
-0.025703125 0.0059037395 0.13815199
-0.14795616 -0.15022396 0.088776588
0.02396071 -0.092071004 0.18949006
0.057256401 -0.071333952 -0.067626446
-0.16143569 0.11284762 -0.064203486
0.094247147 -0.075847156 0.1050768
-0.26698872 -0.093263298 -0.16925214
0.10539541 0.068249807 0.13580106
-0.040156774 -0.12350708 0.041819535
-0.0068706349 0.061634328 0.021091016
-0.010075215 -0.26740754 0.063383043
-0.088704921 -0.084333725 -0.032498695
-0.11121863 0.21673852 0.16345057
-0.0091614798 0.13047054 -0.1697706
0.0060794186 0.092381969 -0.14682521
-0.0037300454 -0.098758273 -0.13352737
0.2213496 0.042166583 0.11393307
0.10682522 -0.0090944869 0.1391031
0.13330391 0.033840612 0.097561508
-0.1106462 0.069820441 0.0029898211
-0.096655957 -0.07151071 0.12710355
-0.0096541904 -0.21518049 -0.052697368
0.13996607 -0.057735592 0.16957441
-0.0066556055 -0.11970641 -0.2462177
0.038433556 -0.056010608 -0.15327883
0.14309382 0.079482123 -0.12090608
-0.014147185 0.027378067 0.015698081
0.014907368 0.089031674 0.18958043
-0.10622908 -0.020656776 0.13356654
-0.017166197 -0.032429907 -0.031061333
0.035103351 -0.065744817 0.090352222
0.096823148 0.11920226 -0.013478312
-0.15190877 -0.1199503 0.03403265
0.036932167 -0.16173375 0.075761899
0.041935436 -0.12391099 0.23993805
0.025172025 0.19360811 0.2721912
0.12730521 -0.03709897 -0.082076445
0.05307769 -0.044645742 -0.0087596187
0.049286231 -0.12844351 0.13026789
-0.039378084 -0.055153944 0.055432595
0.048432607 0.034280103 0.10887697
0.097098202 -0.11606701 0.16369882
0.053249467 -0.040337265 0.092918105
0.014610723 0.17952615 0.083992921
-0.0023285383 0.095388591 0.092781559
-0.075642541 0.014169673 0.14742649
0.15692306 -0.071901172 0.060008533
0.018658854 -0.066482522 0.046308015
-0.070662037 -0.0021375716 0.25573319
0.10286364 -0.036264323 -0.00559159
-0.08175315 -0.056038234 -0.11560332
0.086879514 0.026893746 0.094829634
0.2343414 -0.054169025 0.041202918
0.070372105 -0.081429742 -0.082340419
0.0018330775 0.14855944 0.18848267
-0.038492572 0.0013865381 -0.099078313
-0.0070883287 -0.080624625 0.065388516
-0.11407413 -0.07029219 -0.10877475
-0.029552668 0.1860652 0.12525888
0.051394053 0.12952711 0.18607946
-0.13786143 -0.1673227 -0.12648408
-0.12072695 -0.21562579 0.1587808
-0.023881145 0.0056352429 -0.020894205
0.032650564 -0.13937742 0.013134539
0.053915054 0.035050452 -0.056291349
-0.094548255 -0.0050304979 -0.017074659
0.071090803 0.065487593 0.02036
0.11203022 -0.042423412 0.11955262
0.018045355 -0.085737675 -0.018133454
-0.082382798 -0.040500786 0.19505225
0.021619536 0.095266916 0.16431284
0.12580402 -0.2343626 -0.041808937
-0.15947293 -0.077061899 -0.25060156
-0.15768746 0.019675091 0.017997725
0.1289386 -0.1522506 0.20644584
0.24344514 -0.17651004 0.14351672
0.052125394 -0.029539306 0.12035568
0.025805658 0.04187252 0.11714138
0.082489505 -0.047574423 -0.076751247
-0.059097357 -0.19755092 -0.013214713
-0.085958749 0.14537294 0.12592439
0.0075588264 -0.12185961 0.028190605
0.028641328 0.032895893 0.022690594
-0.23601308 -0.1289123 0.0057144412
0.13638939 0.031213369 -0.048574574
-0.066220775 -0.08729966 0.017422408
-0.10505794 -0.11970971 -0.078212678
-0.085058354 -0.066095963 0.13062757
-0.010772457 0.16524683 0.020724788
-0.015024848 -0.047660172 0.15387255
0.082304753 0.032887101 0.049869489
-0.0039870637 0.02929645 -0.12447467
-0.017172471 0.087740168 0.14472139
-0.066725507 -0.1601682 -0.023271926
0.21458949 -0.05820673 0.13071331
-0.14032483 0.0080965646 0.19762722
0.13317537 0.12391999 0.060426764
0.056693047 -0.16370064 0.18918532
0.097908206 0.0012055896 0.013622267
-0.10950439 -0.074854404 -0.090550274
-0.047318954 0.14162758 0.20486349
0.032974388 -0.10007437 0.041529611
0.25284871 0.40372247 -0.046812862
-0.022540523 0.098010033 -0.064145692
0.081684917 -0.065321773 -0.020383552
0.22742857 0.12191141 -0.17365617
0.054106049 -0.09799087 0.1399895
0.0014084056 -0.1904507 -0.10508942
0.26643848 -0.029771734 -0.010253968
0.096631207 0.14369547 0.18589079
0.075337037 -0.046497308 0.040556263
-0.12844224 -0.093339399 0.048137456
-0.04133606 0.17559952 0.0011262894
-0.070910938 -0.131442 0.0041265711
-0.099178582 -0.1610744 -0.016351402
0.025858203 0.073971614 0.32866168
0.15007463 -0.064093322 0.21752876
-0.039104618 -0.10111005 0.16392046
-0.092031077 -0.15509222 -0.033121064
0.00062721595 -0.047937531 0.13017012
0.041482694 -0.012519994 0.040911626
0.15980804 0.02384663 -0.058718421
0.038647927 0.023298189 0.08429943
-0.079783931 -0.073788188 0.063703187
0.13106579 0.012793536 0.21866649
0.11810479 -0.12063341 -0.090358071
-0.08288072 0.080880672 0.083473459
0.24189331 0.072893389 0.36022288
0.092778265 -0.1553244 0.075184844
-0.032720141 -0.088064149 0.10103473
0.1364283 -0.0081332503 -0.047803991
0.061746135 0.22935879 0.018165905
0.019633545 -0.071246631 -0.012625231
-0.11634068 0.04852844 -0.021133021
0.19655296 0.040512372 0.032066021
0.06816265 0.21790811 0.12560382
-0.010874782 0.14048116 0.015015282
0.092045717 0.018278386 0.021708883
0.20505248 0.014563583 0.074470878
0.019774374 -0.079009153 0.23316824
0.28086343 -0.0028978735 -0.049369887
0.18666786 -0.14189567 0.053785533
-0.01556791 0.021704186 0.30001843
0.22247827 -0.062607355 0.12212488
-0.11660729 0.026070708 0.0517077
0.039160274 0.21936107 0.16920094
0.0078347921 0.0097931679 0.17570661
0.065772817 -0.10104546 0.14276166
-0.020681199 0.16634864 0.13055207
0.11677918 0.15210116 -0.011324181
0.14290231 0.030147558 0.044386975
0.23455881 -0.083558366 -0.10718255
-0.029033657 -0.13191791 0.058903821
0.064461142 0.010835409 -0.11540177
-0.075246871 -0.30105335 -0.035481904
-0.15296623 -0.030526925 0.18744485
0.12367144 -0.17250478 -0.094111107
-0.1180707 0.033029344 -0.030786246
-0.055154506 -0.24710038 -0.064703293
0.089370638 -0.0029775947 -0.099228404
-0.14051077 -0.056526951 0.079932265
-0.056986805 -0.12784527 0.18317127
0.26446688 -0.0067190314 -0.041467883
-0.0041545108 -0.019145515 0.16792907
0.12089049 -0.15393999 0.035645686
0.22517326 0.024042806 -0.012057625
-0.0032335129 -0.19757153 0.039247029
0.044187412 -0.004998602 0.29880396
-0.03932403 -0.090843469 -0.010820652
-0.19568853 -0.031222178 0.062807277
0.071010478 0.16304018 -0.030433964
-0.23378181 0.041427869 0.14931116
-0.081388548 0.099711105 0.25162676
0.011502141 0.03143584 -0.017403603
-0.21605268 -0.049244706 0.18814541
0.011989348 0.06681329 -0.046875484
-0.12925805 0.025833579 -0.026008328
0.056916308 -0.11302365 0.19351834
0.22853655 0.049334347 0.12318109
0.046951599 -0.072312713 0.10034268
-0.15154159 -0.084078893 0.041508473
0.046406202 0.078631476 0.16655368
-0.0030998886 -0.144786 -0.056783698
-0.10374346 0.18718794 0.12039703
-0.047484435 -0.040367033 -0.008582972
-0.064558744 -0.24440485 0.084070191
0.079540879 -0.040454559 -0.022846147
-0.12622549 -0.19993493 -0.019516701
-0.13992709 0.24574508 0.035109475
0.088649079 -0.20391145 0.071319185
-0.081860371 0.14256769 0.063111551
0.071236186 -0.17237583 -0.018114708
-0.090553194 -0.25682265 -0.025832331
0.087314337 0.034635961 -0.3439506
-0.037835956 -0.0045157894 -0.055486336
0.087679558 -0.056169137 0.0018948838
-0.0089426823 -0.084414646 0.061915644
0.089938149 0.0013548471 -0.0077431854
-0.02097322 -0.05972518 -0.046326067
-0.04864537 -0.057898015 -0.035288222
0.029129803 -0.050418567 0.010479656
-0.12473387 0.021410333 0.051240906
-0.18218265 0.067605719 0.1563715
0.096474111 0.083596058 -0.077296242
0.22380912 -0.069471486 0.036074106
-0.045853611 -0.15741457 0.17746145
0.20742854 -0.23302683 0.11032307
0.12811843 -0.22319478 0.27551097
0.0028049275 -0.029259525 0.024718128
-0.065643743 -0.11946028 -0.10060842
-0.036088396 0.0165084 0.16697811
0.18071316 0.037878506 -0.078235678
-0.13856541 0.042032979 0.060533017
0.051496103 -0.20840788 0.03976224
-0.031966481 0.21725196 -0.11485001
-0.035219267 -0.14878885 0.028787905
0.32176811 -0.020552628 0.10805865
-0.00040290505 0.032881029 -0.077976242
0.10334855 0.066472113 0.030955154
-0.28236145 -0.17453265 -0.022880189
0.073817499 -0.0035302192 0.17025056
0.088248253 -0.021539215 -0.19782871
0.053741474 -0.018893827 -0.057061236
0.026191592 0.017624825 0.20085339
0.014280137 0.018290214 0.10869466
0.14539486 0.10673644 0.042516313
0.17525759 -0.05957453 -0.22338659
-0.049837288 0.21752472 0.18623054
-0.11505225 -0.06165475 0.11000083
-0.077349022 0.062844791 0.049601097
-0.076725744 0.24973604 0.046960652
0.038057193 -0.2197026 0.12119606
0.038848214 -0.029641412 -0.089120828
0.1195683 -0.31467348 0.14681256
0.21196261 -0.016863808 0.20947395
0.017586384 -0.018736746 0.066806197
-0.14885408 -0.019035026 0.19450361
-0.023213871 -0.085594833 0.26379186
0.12382902 -0.071131244 -0.0013442114
0.041130945 0.18111682 0.11301271
-0.025034312 -0.14742279 0.043951984
0.045709804 0.071346357 0.15874648
0.15326232 0.0085450718 0.27956283
0.2173419 0.20885576 0.29838431
0.15832806 0.13030586 0.018270217
0.0086519122 -0.070063367 -0.08019463
-0.03388143 0.18005937 -0.060277928
-0.11890444 -0.056037236 0.23180628
-0.052249208 -0.016077943 0.1080208
-0.041106042 0.094440274 0.15732071
-0.1206098 -0.14649707 0.015204698
-0.09031035 0.0067232605 0.19215186
-0.052430771 0.046163529 0.15107302
-0.037994243 -0.21127972 0.049859971
-0.22965689 0.19136524 0.02821715
0.21170162 -0.030129658 0.20472133
0.12893812 -0.082259253 0.081469007
0.06495297 -0.022726212 -0.12115569
-0.19464362 -0.18015628 0.0087296888
0.13438103 -0.063052416 -0.03830982
0.011621203 0.095463894 0.12842372
0.10004399 -0.2873832 -0.14216827
-0.043784909 -0.084429562 -0.12138093
0.28504598 0.05433102 -0.061066333
-0.026021838 0.22365755 0.0037312098
-0.070226625 0.044103011 -0.00599741
-0.10449357 0.034367096 -0.075901411
0.13764901 -0.10585944 0.11754639
-0.10542406 0.03449716 -0.074471571
0.0070707602 -0.12572619 0.14433701
-0.00036986917 -0.028399717 0.15592435
-0.093267664 0.077201553 0.076905474
0.24861412 -0.14400986 -0.080100894
-0.049834687 0.063153327 -0.0011502132
-0.018257812 -0.056149043 -0.12641251
-0.12924343 -0.05965177 0.11497361
0.038240589 0.047806382 0.11293557
-0.22955351 0.14871973 0.011884199
0.012534887 0.014230601 -0.065103531
-0.156423 -0.1578747 0.1601921
-0.16337223 0.07893011 -0.074732892
0.15640162 -0.1020074 0.078359649
0.11488348 0.054618124 0.018132448
-0.032195464 -0.063588098 -0.088963836
0.064967245 -0.070130989 0.12771586
0.13093291 -0.27250004 0.15832701
0.063455567 -0.13651228 0.059064984
0.23154739 -0.0815299 0.0090266354
0.081401423 0.11322743 -0.064629398
0.1094331 0.2786608 0.019046014
-0.043715905 -0.16632792 -0.1541429
0.065444939 0.025847949 -0.075487249
-0.067071468 -0.042862467 -0.11416024
-0.014785669 -0.061624721 0.087971695
0.043322314 -0.0053131757 0.19461557
0.066246755 -0.046293408 0.053690933
-0.038375031 0.035817109 -0.084587887
-0.085576355 -0.1359064 -0.0067884251
-0.092174679 0.076646581 0.11608803
-0.0089768395 0.097257197 0.046450526
-0.088200472 0.04772361 0.16019638
-0.17235526 -0.23188058 0.052004304
-0.043933846 -0.14991815 0.060605027
-0.16545355 0.26615986 0.0060376097
0.10820033 0.10179541 -0.16542119
0.16756888 -0.15544426 0.099230379
0.13243449 0.10258812 0.17187184
0.15163562 0.12790103 0.044710953
0.016720517 -0.019203965 0.032743581
-0.0018675644 -0.12105286 0.045605749
-0.056972098 0.014558917 -0.051681533
0.062977396 -0.13147779 0.034959547
0.073570885 -0.13143311 -0.068326674
-0.097470701 0.005264096 0.0077322945
0.075662114 0.055629119 -0.06079983
0.14040707 0.09257742 0.12397794
-0.10216749 -0.04449033 -0.11632305
0.10252127 -0.11793093 -0.040663548
-0.22349417 0.01900284 0.060901389
0.13696885 0.16418886 0.12338166
-0.042048097 -0.27756757 0.20158616
-0.19130953 -0.20721386 -0.042347085
0.14727341 0.031551909 -0.031712532
-0.2277821 0.14737763 0.011229914
0.051950354 -0.074486688 -0.07558655
0.11884212 -0.21532845 0.050503321
0.018324081 0.19363102 -0.14300191
0.072417215 -0.15985414 0.19781433
0.076923609 0.00044198334 -0.015100513
-0.037356704 -0.04196972 -0.10820295
0.13073815 -0.12908579 0.17847425
-0.016304474 0.048809424 0.13728265
-0.2216154 -0.15442076 0.068801485
-0.20179403 0.052225132 0.00056895614
0.014257688 -0.020752281 0.047897361
-0.05090443 -0.0089999437 0.029579043
-0.13843313 0.048416667 0.1367164
0.036084305 -0.18833782 -0.0096829664
0.066411935 -0.058558356 0.022442956
-0.15786855 0.045015793 0.14413165
0.02396616 0.10454457 -0.036313262
-0.1194884 0.19945039 0.082881398
-0.13383622 -0.13616279 -0.18268259
-0.042434044 0.060545877 0.28406325
0.1628556 0.065420762 -0.16427186
0.075709596 0.1238137 9.5125288e-05
-0.062873065 -0.1407371 -0.14204317
-0.069164969 0.0030102283 0.048110217
-0.24155696 -0.039321296 0.028170757
-0.12887067 -0.018805327 0.22987619
0.12535456 0.10111852 0.1431694
0.13704471 -0.22032592 0.087368049
0.045608707 0.031307414 0.031453632
-0.046869121 -0.056468792 -0.072905093
-0.14665589 -0.083124012 -0.011887055
0.0076850764 -0.1514926 0.17553742
-0.097546548 -0.093353108 -0.063615851
-0.036790788 0.026800986 -0.12557884
0.0030574203 -0.19220881 -0.08785408
-0.081728369 0.071750961 0.07410863
0.13758263 0.11970265 0.15489279
-0.037158966 0.084879965 -0.10166871
0.047004506 -0.12196591 0.10905193
-0.13279676 0.045195248 -0.060861714
-0.077711277 0.091416925 -0.15359367
0.093948118 -0.070320196 0.17425032
0.13837993 0.084189706 0.19470018
-0.031500772 -0.10796399 -0.032984078
0.11510697 -0.070549957 0.29528987
0.052711636 -0.15349731 -0.10137722
0.1004789 0.0037322119 0.07836999
0.19931073 -0.075267538 0.13514748
-0.028181728 -0.16167806 0.17429429
-0.1465162 -0.37129858 -0.13721371
0.067476906 0.030752428 0.050847545
-0.050370555 -0.092 0.066485032
-0.072555162 -0.0012882017 0.18341064
0.1281551 0.08607702 -0.030131411
-0.11348261 0.078019217 -0.19729052
0.12637179 -0.0897578 0.16499002
0.14058036 0.080748051 0.098710544
-0.065504864 -0.18610875 0.16094506
0.13162643 0.079890206 -0.1031113
-0.075106971 0.11643469 -0.047532964
0.26369655 -0.047448494 0.1574498
-0.086797625 0.0041530281 0.14646493
-0.20160002 0.11436227 -0.032514676
-0.079735056 -0.082335055 0.12854868
-0.050780166 -0.18325795 -0.0032879822
-0.19897142 0.027663825 0.15658465
-0.0027599037 -0.058757 0.15155166
0.0039967373 -0.15779421 0.036637612
0.075267717 -0.24288246 0.055914517
-0.031753872 -0.022809826 0.022891965
-0.018158525 0.077711061 0.018788002
-0.037665211 0.13469915 0.18698174
-0.040418245 -0.048724767 -0.1365146
-0.10880908 -0.050561622 0.30601069
0.10563469 -0.18594211 0.058481768
0.087833099 0.11079627 -0.058454245
0.029964846 -0.15611063 0.27640694
0.16658796 0.049625367 0.085662745
-0.040371403 0.12214672 0.025828809
-0.11396369 -0.049936168 0.1254845
0.0024328381 0.1406104 0.14074524
-0.031857304 -0.024904676 0.14352033
0.020717677 -0.05013356 -0.013433568
-0.17644963 -0.092680193 0.018167138
0.027825596 0.031747028 -0.084912941
-0.19872499 0.061212666 0.19678411
0.029127551 0.017416466 -0.11991641
0.20939259 0.033069149 0.018381499
0.023928026 -0.033764459 0.29425383
0.36079213 -0.084181949 0.15801772
0.025851432 -0.20963377 0.011520768
-0.12815309 -0.0049173906 0.066037372
0.15033677 0.11577889 -0.043470223
-0.1143053 0.055401906 -0.1233428
0.095876925 -0.15427525 0.15322325
0.084089682 0.043591529 0.11618862
0.087651089 0.19655685 -0.087500364
-0.051324304 -0.073834687 -0.23952048
-0.079256758 -0.12921534 -0.041084114
0.039238751 -0.15441853 -0.0022483915
-0.17954962 -0.095869772 0.22341891
0.084237665 -0.0074619935 0.23869336
-0.030139299 -0.13232511 0.057917155
0.10070207 0.0025519747 0.16231099
0.039567858 -0.023601949 0.24130282
0.19478443 -0.065973438 0.19817895
0.13925706 -0.16443819 -0.12522149
0.093504235 0.11348477 0.1282215
0.14178166 -0.10796112 -0.064684182
-0.068678856 -0.091829605 0.031118624
-0.085756473 -0.070027508 0.1003141
0.031260792 -0.17966226 -0.16700709
-0.038187712 -0.054126833 -0.0075645056
0.12483487 0.062512808 0.073082402
0.25001565 0.0078331083 -0.060356963
0.12660117 0.066336244 0.1316507
-0.051035717 -0.30067867 0.12565561
0.047748096 -0.0061013028 0.1472259
0.026806472 -0.16718152 -0.22302164
0.064671062 -0.12142049 -0.071291789
-0.090954237 -0.12652558 0.14047353
-0.067863591 0.027597433 -0.020586206
-0.0054781456 0.1646155 -0.047093097
-0.099294476 -0.035100631 0.04123608
0.055206954 0.09368071 -0.10254848
0.11901376 -0.046679139 -0.037850242
0.024732906 0.087731436 0.023329031
0.08826448 -0.050896041 0.048058279
-0.23704416 -0.031263292 0.23817509
-0.044084571 -0.022139799 -0.067856878
0.0083854608 -0.2699343 -0.16121741
0.14914258 0.010339312 0.18048143
-0.0088348091 0.0045901369 0.024543554
-0.027773347 0.038789343 0.036073029
-0.028938424 -0.12586017 -0.16982162
0.28495723 -0.27683318 0.23123772
0.19340381 -0.062312093 -0.10107567
0.092666768 -0.10023134 0.052081898
-0.1446954 -0.15495366 0.0948027
0.18786588 0.0069581829 -0.081814066
0.25577891 -0.14297423 -0.057290025
0.25186318 -0.14368896 0.059713706
-0.023084262 -0.12385277 -0.10380852
-0.0072176121 0.013957351 -0.028542258
-0.10487123 -0.12619181 0.0035431124
0.028271824 0.071042605 -0.14133024
-0.044716388 0.015065897 0.20602894
0.13448644 -0.06259191 0.03878542
-0.12389745 0.015757881 0.26519507
-0.10638689 -0.066132255 0.0074642748
0.094779104 -0.1031792 0.11435301
0.028822692 -0.17031051 0.045301355
-0.010662559 0.024876328 0.093579158
0.1181869 -0.07192491 0.076596379
-0.23423308 0.00090468675 0.19037765
-0.1235607 -0.089332461 0.055075977
0.14854735 0.05396679 -0.10162755
0.083000965 0.013392553 -0.20958698
0.23534092 -0.064155005 0.28106567
0.078051835 0.070130259 0.050600469
0.16573282 -0.004360931 -0.13429502
-0.049300089 -0.10537153 0.3669112
-0.10962655 0.087545753 0.14143822
0.026557634 0.052161522 -0.097057283
0.079660624 -0.10455446 0.13970305
-0.065572403 -0.046272732 0.073158786
-0.07459408 0.019892931 0.10962787
0.14601824 -0.015685521 0.017777286
0.094762482 0.072946459 0.046206087
-0.075588018 -0.0057970025 0.030321606
-0.14401507 0.00064910576 0.031482954
-0.0011073234 -0.060658373 0.12867594
0.033842102 -0.24656434 -0.079716407
0.055253919 -0.033070136 -0.035956241
0.083382905 -0.21794568 -0.079676151
0.14859909 -0.13851866 0.079496726
-0.024051622 -0.15975781 0.002981253
0.10366084 0.03338911 -0.076003514
0.086619705 -0.16367947 -0.073281266
0.064907901 -0.090998337 -0.015553743
-0.021372886 -0.032121684 0.18004122
0.087963954 -0.019402318 0.24964434
0.0091714961 -0.017237972 -0.15802222
-0.00047974661 -0.029719897 0.036070764
0.088717818 0.067309678 0.13310859
-0.035747919 -0.084694669 0.24391636
0.019371958 0.064948604 0.038293555
0.12088303 0.044200167 0.0012960881
-0.032570295 0.013042908 0.011495741
0.081752732 0.11816703 0.062516153
-0.1003992 -0.11113912 -0.028339662
0.050430674 0.31162459 -0.10676333
0.17390683 -0.035075106 0.049481317
-0.16832888 0.12844294 0.024271995
0.043578617 0.0094683878 0.1230136
-0.10228284 -0.0019937139 0.15408976
0.025929062 -0.016107325 0.19457871
0.069070503 0.025533939 0.016289713
-0.094073363 0.077080093 0.024052277
0.045088738 0.10423043 -0.011061652
-0.00037392601 0.019215606 0.0039676353
-0.089585401 -0.17806774 0.08082442
0.011148911 -0.10532551 -0.01268106
-0.14794019 0.12286532 0.21642819
0.057362027 0.056314915 0.04258211
-0.11061991 -0.020283647 0.071822412
-0.20164654 -0.048829746 -0.0075862724
-0.027418412 0.079460129 0.18296453
0.059523493 0.026014995 0.12361496
-0.047957897 0.14391056 0.091629848
0.050273851 -0.16029233 0.24253324
-0.015742574 0.046366669 -0.014836784
0.22017831 0.13468002 -0.042202368
-0.124745 -0.04276504 0.05344861
0.067426197 0.10450886 -0.03233131
0.25681931 -0.056181975 0.033379801
-0.14056188 0.05742465 -0.11062703
0.046271104 -0.042798277 0.12862098
-0.12877755 0.014778309 0.06094978
0.047087178 -0.23437451 0.14569844
0.10707842 -0.13450913 0.19335243
-0.020063613 -0.12241766 0.14315121
-0.049051188 0.074220926 -0.015716404
0.014923297 0.020734906 0.028089847
0.035199575 -0.07154724 0.11530899
-0.11725649 -0.096215412 0.013483671
-0.072965726 -0.070050865 0.047769003
-0.26963782 -0.022158094 0.031026009
-0.2061471 -0.090924755 0.081047833
0.15920515 -0.22313802 -0.0034416895
-0.013657006 0.082334533 -0.1014235
-0.075951859 0.087104626 0.11914039
0.043925639 0.14024091 0.023330942
-0.082931817 -0.11808348 0.073331177
-0.065712884 -0.28443411 0.11785581
0.13642487 0.079637751 0.17419395
0.054149851 0.1535434 -0.12869343
-0.005730629 -0.011592578 -0.02137953
0.082407445 -0.031509176 -0.10680844
0.082236998 -0.23915431 0.24062568
0.034522388 -0.18386036 -0.091575235
0.075565964 -0.15200748 0.10516953
0.072066009 0.19374892 0.1506667
0.13896511 -0.051891204 -0.10137132
-0.14541708 -0.08385545 0.017266752
-0.17335768 -0.25832376 0.28522477
0.07183367 -0.20664155 0.017390594
0.2012341 -0.35742858 0.071063891
-0.034751739 -0.10259096 0.18047121
-0.12527713 0.030584294 0.099827752
0.0099592283 -0.0061302017 0.017185926
0.053654186 -0.044684321 0.14293964
-0.14568253 -0.068543054 -0.049750216
-0.099695034 -0.0066926293 0.20007142
-0.16603714 0.063286491 0.1820319
-0.035757225 0.1507369 -0.06158255
0.022273015 0.031868014 0.046827633
0.064089827 0.14849487 0.13416369
0.074484348 0.057265446 0.092547446
0.085690141 0.074125051 -0.046383955
0.014969662 -0.18587622 0.29300869
0.20549212 -0.10129729 0.028569713
0.057449128 -0.055099458 0.36883196
0.11109828 -0.090620197 0.12681738
-0.27351183 -0.13967392 0.18529433
0.013980266 -0.0030591711 0.065772273
-0.16378212 0.06481158 0.089276761
0.14173529 0.02488121 0.036117047
-0.063700601 -0.21270563 0.026100134
0.04766294 0.06968081 0.061471421
-0.018664617 0.078207135 0.035116568
-0.050581142 0.13489389 0.079128981
0.001144927 -0.24916375 0.13819681
0.078403994 0.059005115 0.078577839
0.14485542 -0.023962155 0.037247501
0.18564108 0.15941927 0.11226872
-0.068692774 -0.062883325 0.085390344
0.081330717 0.1505945 0.025782442
-0.13755384 -0.04209622 0.0023525311
-0.08861205 0.093297988 -0.024745706
0.10713153 0.04886993 0.0059132241
0.066142477 -0.16195777 -0.024456602
0.056206532 0.071947977 0.19354317
-0.0051683034 -0.062661558 0.065879136
0.17742775 -0.027474791 -0.13721001
0.19212912 0.088005878 0.075338967
-0.11661553 0.11449105 0.062962309
-0.095130168 -0.014058771 -0.025111945
0.045493238 0.0083394274 0.10562398
0.13229087 -0.21343185 -0.0071808039
0.080410764 -0.030557718 0.27013659
0.00012836233 0.04721627 0.078735024
-0.089466915 -0.31424934 0.034326904
-0.063880891 0.16750827 0.067187525
0.024111239 0.0093650185 -0.03134609
-0.24189846 0.26937422 0.058810446
-0.077602804 -0.061552793 0.035929006
0.29599023 -0.023016591 0.038257606
0.016721023 -0.060935304 0.22435513
-0.29553497 -0.033496663 -0.05594828
-0.1494243 -0.2410405 0.10708076
0.050637737 -0.12442758 -0.23446187
0.074464239 0.046603188 -0.17000875
0.042442538 -0.18121344 0.17531289
0.0072619654 -0.25335357 -0.023336681
0.064713307 0.011982612 0.14565194
0.049388982 0.041687436 -0.13751683
-0.029743101 -0.0070720725 -0.099169075
0.026343996 0.095126286 -0.030461479
0.061403304 -0.090433359 0.15979418
0.10134377 -0.091464095 0.22945493
-0.070896968 -0.13705388 0.20569545
0.20987958 -0.15865737 0.13608217
0.15008116 -0.10564602 0.019295529
-0.066494785 -0.018639777 -0.067507967
0.088811025 0.024125002 0.14136475
-0.055050146 0.19527557 0.04730333
0.041045047 0.021649346 0.26540625
-0.028341554 0.0772129 -0.041422971
-0.012742795 0.13798729 -0.0019384325
0.13562545 -0.071998 0.035108201
0.15321986 0.024089303 -0.064396456
0.10575094 -0.11230542 -0.09584742
0.13090891 0.11381038 0.15215531
0.018664118 -0.1458414 -0.10174217
-0.046939954 0.1071054 0.21952154
0.17143159 0.028703637 -0.13397539
-0.13890342 -0.073616579 -0.095551819
-0.13298427 -0.05763565 -0.057436742
0.08947432 -0.040372435 0.20381129
0.17971975 -0.02902827 -0.017090637
0.054127097 -0.17734972 0.34091634
0.0012629032 0.018510729 0.1089364
0.021531906 0.070711248 -0.021232493
-0.044833247 -0.03384373 0.11151758
-0.067275725 -0.14332479 0.20816553
0.19589922 -0.21933798 0.13197479
-0.076253086 0.042174559 0.14425258
-0.13284251 0.066771574 -0.0063919481
0.060207322 -0.070326865 0.16074702
0.040595967 0.04717692 -0.0083262976
0.0084037445 -0.17324053 0.2191408
0.1351106 -0.051512878 -0.00036467984
-0.090076528 -0.1924918 0.068951651
0.084949173 -0.1119692 0.28914654
0.042628676 -0.31833583 -0.041498754
-0.093513012 -0.20892495 0.14083815
0.089247607 0.050718565 0.083152421
0.0016726442 0.038700961 0.068548046
0.025273554 -0.0017330446 0.062176213
-0.074024767 0.079629712 0.047741186
0.099270456 0.15695789 0.059589513
-0.046020821 -0.18891551 0.091750875
-0.068006679 -0.040346395 0.12814245
0.024467893 0.1226536 -0.17473292
0.022230329 0.0038563758 0.24869156
0.13853125 -0.0048059896 0.25800985
-0.024657711 0.0974814 0.049263783
-0.0045559062 -0.28765649 0.062621139
0.083237328 -0.0038565993 -0.038216241
-0.032976285 -0.08635363 -0.087308973
-0.052212771 0.086403452 0.10155077
-0.05879838 -0.14075473 -0.090533137
0.073924288 -0.12972908 0.037219141
0.035266146 -0.017856542 0.12386487
0.13790336 -0.020317141 0.28453949
0.016495874 -0.040249243 0.088660195
-0.035560757 -0.24284738 0.18861243
0.048461098 0.13415162 0.030158773
0.033805035 -0.28192216 0.28274891
0.1412558 -0.033919338 0.11006814
-0.038733486 -0.12715645 0.2374146
-0.10230531 0.10919356 -0.19310865
-0.051485442 -0.23620917 -0.066207536
-0.12701464 0.014757026 -0.10280285
-0.055987831 -0.022612359 -0.040660612
0.028578442 0.10716666 0.15869351
0.039823413 0.098318771 0.062298834
0.17247221 -0.077190004 -0.036991253
-0.091952682 -0.056653187 0.0015471727
0.035302099 0.11377952 0.053765036
-0.094197243 0.035016295 0.28875893
-0.090981923 -0.10682093 0.18483296
0.17528854 -0.047437772 0.11136906
-0.12029993 0.017928397 0.20226292
-0.008950647 -0.17483382 0.080820471
-0.066000313 0.023807041 0.12327601
0.064634159 0.071746416 0.11833345
-0.17457633 0.047342721 -0.10561682
-0.32111362 0.21835172 -0.15438679
-0.052432917 0.08117304 0.068361752
-0.069675498 -0.059897918 -0.050710846
0.016610615 -0.011826133 -0.10517901
0.00059517473 -0.16435345 0.052438948
-0.096001253 -0.21962589 -0.14214583
-0.080348536 0.12647164 -0.080255367
0.0026218742 -0.054225639 0.06848409
-0.0073359497 -0.093930244 -0.040363371
0.058464684 0.005153277 -0.10249391
0.093810081 -0.13786611 -0.1085491
0.20647186 -0.065927878 -0.026685163
-0.075297922 0.070923463 0.024463845
0.040284768 0.11608121 -0.17056639
0.23588291 0.018078208 0.16558704
0.0073859859 -0.10671535 0.14863053
-0.3292675 0.11584878 0.03959474
-0.290382 0.1462266 0.034132317
0.096197449 -0.030273382 0.10448313
0.19261126 -0.080802009 0.14777507
0.014619239 -0.031975701 0.069111995
-0.043679025 0.10567487 -0.1177877
0.12368106 0.0076311901 0.087608755
-0.075843662 -0.057543635 -0.06265261
0.067211814 -0.059437416 0.038957357
0.017183024 0.1971928 0.20439731
0.15864947 0.11091191 -0.13657887
0.041823242 -0.087887153 0.22594139
0.010314655 0.020945547 0.1488011
-0.30113584 -0.12483951 0.082653806
-0.018259564 -0.13744399 -0.0042839274
-0.015315562 -0.042873211 0.34886003
-0.044709936 0.023809917 0.112067
-0.18162368 -0.030810855 0.13166569
0.013648798 0.036524471 0.0062675402
0.073997445 -0.18102449 0.13986698
0.11483138 -0.16764426 -0.035464667
-0.017558098 0.00012626499 0.049772106
0.16685775 -0.035698865 0.025729083
0.073430635 -0.014211535 0.30533403
-0.16874044 -0.14893553 0.085746966
0.28837663 0.012299532 -0.05089467
-0.11034786 0.0023103654 -0.018312141
-0.015454981 0.021734938 0.0065098666
-0.03690812 -0.3021152 0.11130209
-0.020923134 -0.13452566 -0.072755486
-0.083879516 -0.090001091 -0.10172719
0.20908433 0.025239147 0.1004824
-0.027414687 -0.055607457 0.16369539
0.23548153 0.16851157 0.023049675
-0.041985065 -0.207002 -0.096528292
0.0092870705 -0.069188848 0.051025793
0.039541058 -0.199486 0.13508892
0.07277973 0.186171 0.11780131
0.063578092 -0.11327944 0.097029924
0.095626712 0.063385859 0.11871112
-0.0083321556 -0.21562061 0.10574082
-0.11565772 0.15555462 0.041268215
-0.11994756 -0.15950644 0.074121878
-0.031059446 -0.098339625 0.28866842
0.041194502 -0.012948834 -0.14586505
-0.0017014071 -0.14504957 0.12794559
-0.041047309 0.093746953 0.23820946
0.18662742 -0.11487232 -0.075656414
-0.023921628 -0.19906972 0.16221553
0.071326353 -0.26149559 0.068093151
0.09034723 -0.037020836 -0.0065653697
-0.068822652 -0.018871127 0.12366121
-0.10463544 -0.028828723 0.10741974
0.2217918 0.11802831 0.012511209
0.11665662 0.035060674 0.15705718
0.0018248009 -0.0025235713 0.079297945
-0.053803977 -0.12271415 -0.054137319
-0.25790304 0.0098846778 0.054863285
0.03148279 0.096491389 0.065837517
0.059547648 -0.16972904 0.12731785
-0.098012239 -0.023663096 0.27012464
-0.02531746 0.1338342 0.049905416
0.050715141 0.03879175 0.0073265024
0.032552224 0.10753478 0.050867971
0.12224025 -0.057428513 0.075364105
-0.10733329 -0.1217212 0.25000912
0.044796027 -0.20932388 0.0294073
0.051772591 0.097486056 0.1338934
-0.055476986 0.10995653 0.099265106
0.016292531 -0.16271162 0.16043149
-0.097562723 -0.014155678 0.14183064
-0.16525424 0.094057798 0.029528463
0.14823826 -0.075052336 0.15657017
0.035331808 -0.044521425 0.11548389
0.029024744 0.055728149 0.15156606
-0.090455666 0.17515317 0.091792047
0.060519099 0.16536899 0.043189727
-0.024269911 0.062145516 0.012630064
-0.17198254 0.10337934 0.05000215
0.060960092 0.032776527 0.13647197
-0.022683715 0.11608958 -0.055458218
-0.051697962 0.01362247 0.16216481
-0.010945529 -0.050201878 -0.093914799
-0.083601326 -0.18142375 0.076239735
0.013027385 -0.0397036 0.10417245
-0.0078124683 -0.069065511 0.17351826
0.13022307 -0.120306 -0.00036034733
0.031029753 0.04257587 0.15907125
-0.077369139 0.10096975 0.10545298
-0.09557683 -0.22176093 -0.15936087
-0.045764629 0.046565488 0.032282595
0.072577849 0.087079503 -0.1349954
-0.17424634 -0.11181259 0.013972614
0.08260753 -0.045112699 -0.03635022
-0.0069999788 -0.05900738 -0.074176513
-0.055473577 -0.019870743 -0.046151258
0.24536003 -0.12635432 0.13665624
0.02551399 0.059945922 0.24875763
0.23365773 -0.013978697 0.24948084
-0.01303084 -0.073110104 -0.15773812
-0.0018008053 -0.16159873 -0.046305135
0.07576365 0.13767318 -0.1498602
0.0064249262 0.12011541 0.037461072
0.19920202 0.14040053 0.1190856
-0.034896363 0.021809179 0.032959919
0.18984991 0.18868291 -0.054104578
0.0098212436 0.078914516 0.13461347
-0.13900328 -0.28087705 0.094567627
0.063545674 0.13329735 0.29580319
0.11116015 -0.10821703 -0.0022341833
0.081852347 -0.044664633 -0.029764727
-0.11006616 -0.031645305 0.17714176
0.038457736 0.0045706606 0.34336367
-0.12550768 0.14653897 0.082830176
0.25294006 0.088467062 0.069403671
0.21588531 0.061151315 0.10775873
0.067253917 -0.1439821 -0.24534622
0.24983504 0.01923085 -0.015473463
-0.07255695 -0.18248786 0.17733249
-0.16578273 0.11591485 0.10312879
-0.0032184366 -0.22030684 0.075928636
-0.034806557 -0.084461667 0.14710441
0.024834279 -0.028929166 -0.10441595
-0.21050388 0.054340594 0.092282049
-0.11787555 -0.17044565 0.017890435
0.052549064 -0.14490449 0.11605099
-0.0099837445 0.10902159 0.0011063069
0.11678332 0.080156334 0.029077835
0.10774013 -0.18219215 0.063127644
0.061499134 0.034533836 0.21381223
-0.18836547 -0.16529393 0.14671889
0.20568991 -0.11435884 0.10580323
-0.11725519 0.051802382 0.21596822
-0.091558754 -0.058721993 0.089293063
-0.099504218 0.17864853 -0.095365502
0.077923588 -0.14644468 0.028095033
-0.085542686 -0.098881021 -0.095843032
0.086724162 0.05278514 0.10083096
-0.10373552 0.1568906 0.18454039
-0.15431809 -0.023968913 0.069056392
0.077134997 -0.026578255 0.16466206
0.079926826 0.015035439 0.14627807
0.011230383 -0.065484703 0.1526241
0.080647334 0.17455369 0.021435328
-0.0024824478 -0.065926775 -0.029456893
-0.030242793 0.072892532 -0.052578986
0.060863342 -0.1137636 -0.11331995
0.31252086 0.1006125 0.14189172
-0.16815832 -0.048869982 -0.19108832
-0.065934077 -0.02543316 -0.0062387064
-0.011951849 0.06450516 0.12859805
0.025419438 0.036683463 0.12428814
-0.25181901 -0.059135295 -0.14150354
0.086510234 -0.11108486 0.11091065
-0.052402452 0.023083201 -0.061975352
0.0033113994 -0.051660836 0.029214174
-0.0034990534 0.22356346 0.13240366
0.031227909 0.12341898 0.076784566
-0.045423426 0.078657202 0.087125473
0.12718348 -0.023878716 0.22687367
0.029061459 -0.071726948 -0.085137703
0.021740887 -0.080113739 -0.018885888
0.043932658 0.042427003 0.050004277
-0.1169626 0.14566903 -0.0022189692
-0.078147694 0.0038990304 0.024116835
-0.063797742 -0.067515329 0.074156515
-0.038269803 0.11832866 0.036392849
-0.030766819 0.15819672 0.16748916
0.0039402433 -0.14639403 0.065472737
0.093077034 -0.11258217 -0.26802963
-0.042905919 -0.13971323 -0.1684109
0.1149365 0.027563013 0.080407418
-0.088122517 -0.073817179 0.035140615
-0.0055564083 -0.04515256 0.06262932
0.040571652 -0.15252239 0.083282091
-0.13191235 -0.12478744 -0.071183145
-0.31032866 0.27073243 0.1041274
0.030668516 -0.15606339 -0.078221068
-0.077153347 -0.19220568 0.45531663
-0.097388297 0.024560831 0.031391963
0.036831897 -0.091322452 -0.012935717
-0.18038082 0.072141849 -0.041718863
-0.16718292 0.089205936 -0.14614031
0.051078614 0.084934793 0.037158955
-0.0022430047 0.090794638 0.15388077
-0.035765782 -0.098965093 0.22237393
0.0923815 -0.1281261 -0.042394713
0.046946287 -0.082359493 -0.055289965
0.020721776 0.11577879 -0.02472396
0.064410836 -0.080473304 -0.13917248
0.15308799 0.11077726 0.11934083
-0.216162 -0.084971853 0.29598466
0.16648349 -0.17382008 0.080786303
-0.023844717 0.022837181 0.28515109
0.096518248 0.0033245124 0.12185024
-0.088571295 -0.2285457 -0.045132097
-0.10075833 0.069667511 0.047672674
0.08013884 -0.037427075 -0.034053646
-0.059526749 -0.16507435 -0.030502662
0.0082052983 -0.030321524 -0.14578086
0.138126 -0.049590301 -0.055977147
0.045998521 -0.15212059 -0.055526309
0.0033465847 0.073927589 0.12489222
-0.035596319 0.019616146 -0.10132918
0.058397632 0.1087524 0.10798742
0.23993646 0.13222644 -0.089839056
0.015626952 -0.090568997 -0.0045257472
-0.13567723 -0.043215409 0.066345423
-0.056089506 0.010843739 -0.01103466
-0.028035482 -0.049898658 0.02168536
-0.0062386934 -0.14058524 -0.048667729
0.092405878 -0.067067653 0.062705941
-0.19964346 -0.078854114 0.15424967
0.055489086 0.024717666 -0.071113199
0.03270565 -0.13526742 -0.049455762
-0.012888603 -0.19732365 -0.046086747
-0.091494374 -0.012106796 0.17828284
0.00090582483 -0.068217412 0.15894926
-0.073774964 0.084821939 0.02985594
0.20612699 0.069870718 -0.16884597
0.047738664 0.055056624 -0.12236425
0.10836643 0.19886811 -0.0059289066
-0.080144629 0.030864729 0.17997503
-0.032722358 0.13245684 0.0016520172
-0.099672541 0.11134651 0.17355397
0.053468686 -0.2056334 -0.018305492
-0.0045085438 -0.073427074 0.38409334
-0.15429156 0.26040649 0.068193465
-0.14402585 0.059401058 0.13989903
0.098137327 0.17928362 -0.044406213
-0.0024435688 -0.10360889 0.23510179
0.13625938 -0.1111189 0.24399015
0.21435748 -0.066015996 0.029733792
-0.0037726499 -0.032471355 0.20611799
-0.011000332 -0.094077773 0.027306644
