# .PCD v0.7 - Point Cloud Data file format
VERSION 0.7
FIELDS x y z
SIZE 4 4 4
TYPE F F F
COUNT 1 1 1
WIDTH 1325
HEIGHT 1
VIEWPOINT 0 0 0 1 0 0 0
POINTS 1325
DATA ascii
-0.02537187 -0.010519132 -0.10369711
-0.022051308 0.10288744 -0.012970135
0.018813819 -0.010226174 0.018698661
0.11215504 0.2342338 0.11343791
0.14020434 -0.25427359 -0.021000795
-0.20416021 -0.19703613 -0.066413231
0.11890733 0.052258566 0.14487903
-0.084532775 0.15664867 0.057852734
-0.14711125 -0.07109192 0.08717148
0.023800677 -0.0036859815 -0.10059754
0.031257138 0.055931561 -0.050534375
-0.096950978 0.13892974 0.10660836
-0.0041711489 0.092652433 0.15364255
0.017157473 -0.088172808 0.026377371
0.029501434 -0.0034793057 0.076695986
0.19571844 0.045667671 -0.052283015
-0.064031526 -0.029414352 0.10700721
-0.032663282 0.061827075 -0.021348976
-0.17513253 -0.23775104 -0.14590655
0.18471499 0.034435712 -0.10157684
-0.13393554 0.21657918 -0.16424343
-0.15427847 -0.084292702 -0.13688317
0.012128429 0.12306552 0.090943515
-0.013044588 -0.12454011 0.27550408
0.17200203 -0.12978414 0.27543932
-0.13815048 -0.02778114 0.1656868
0.081189968 0.022530444 0.067527711
0.002394801 -0.20186746 -0.15013801
0.10339516 0.12375452 0.032225378
0.064809822 -0.15717953 0.33439073
0.061492953 -0.10456827 0.099483289
-0.052407727 0.091544531 0.2050602
0.20250142 -0.028979737 0.15305769
-0.052272886 -0.18008415 0.16031539
-0.05850821 -0.051596127 0.18297696
-0.14815035 0.069204375 -0.034154367
0.018954987 0.19131628 0.064696386
0.032350101 0.05194065 -0.081783593
0.00030089729 -0.2314654 0.104227
0.11177097 -0.15616009 -0.13759162
-0.089910202 0.083691582 0.070441701
-0.04115805 0.063247986 0.052833669
0.040870368 -0.09322606 -0.023162439
-0.12956037 -0.035504632 0.035162605
0.042181797 0.016458012 -0.041753996
-0.060606249 -0.12386002 0.22565633
0.039182283 0.019891914 -0.11495675
-0.095535085 0.23902281 0.13586038
0.036945455 -0.11370239 0.07416179
-0.099469274 -0.052426316 -0.0049402341
-0.026593313 0.040356245 0.014614545
-0.016158745 -0.24656847 -0.048771188
-0.06451726 0.18155769 0.081083871
-0.015287817 0.033344947 0.11207457
0.063060589 -0.076722249 0.23161432
0.20836012 0.037268236 0.060284965
0.03349847 0.0664334 0.034906864
-0.12728401 -0.098844007 0.075035915
-0.047003008 -0.048119877 0.2049576
-0.0071614757 -0.022029832 -0.049204264
-0.017842824 -0.14270061 0.057511985
-0.098823071 0.007337369 -0.0842373
0.045511074 -0.035855919 0.23638767
-0.064078122 0.077852674 0.09542381
0.087405741 -0.090431049 0.21795577
-0.18033561 -0.064090788 0.088089116
0.14210759 0.066374488 0.1427108
-0.020497069 -0.11112693 -0.14600344
0.18465734 -0.14808583 0.064687744
-0.11330988 0.16490141 -0.074383952
-0.036041915 0.061468378 -0.049644135
0.36571291 -0.092265949 0.12548292
0.041497298 -0.0044963881 -0.18885082
0.054176673 0.12192698 -0.10580146
0.088073328 0.076225057 0.11671421
0.18101025 -0.050297406 -0.066145115
-0.084462903 -0.10762467 -0.097269855
0.096959494 -0.099283047 0.037722833
0.10003334 -0.12265147 0.036901012
-0.10579194 -0.14804357 -0.18449801
0.029546157 0.0045825178 0.044112779
0.095538124 0.074383765 -0.034683771
0.026995502 0.043525185 -0.078050703
-0.13671701 -0.049692631 0.076457836
0.081089623 -0.1151628 0.0094973743
0.050831035 0.076054603 0.15200019
0.037882995 0.044000331 0.022650968
-0.13184974 -0.12037779 -0.037806559
-0.010398978 0.034743067 -0.052278444
0.0044420958 -0.17013276 0.21751636
-0.23326209 -0.22783731 0.076821238
-0.115398 -0.073355049 0.08154045
0.023492971 -0.15066744 0.10457294
-0.064415023 -0.058334839 -0.0047761425
-0.028162818 -0.054985404 0.32503438
0.062057249 -0.0017034262 -0.13666444
-0.21604088 -0.16281851 0.049131151
0.048992477 0.27686846 0.012036279
0.18158659 0.18717279 0.11118823
0.046889633 -0.13745481 0.18614136
-0.07773374 -0.19476271 0.036516238
0.035818361 -0.045451872 -0.095352374
0.079831034 -0.00085894112 0.15617216
-0.0083429143 -0.14563033 0.040016908
0.037501633 -0.018139562 0.17879124
0.13625187 -0.15030988 -0.008579432
0.057866223 -0.15790747 0.078513093
-0.077840351 -0.30081457 0.010190558
0.059152767 -0.16206938 -0.065464832
-0.051150098 -0.090441994 -0.030661955
-0.050229099 0.10125758 0.08681874
0.025722627 -0.3362731 0.14867465
-0.025386941 -0.043715663 0.12362565
0.32441992 -0.14986756 0.11575595
-0.15645868 -0.031273656 -0.12192509
-0.11117914 -0.057197686 0.063413985
0.10292599 -0.12016509 0.029952971
-0.087242946 -0.14398146 0.096406631
0.045718275 -0.011703894 -0.16377798
0.0074760728 0.016208835 0.069026776
-0.14368658 0.074337259 0.22117896
0.1019176 -0.1552299 -0.11916632
0.094252497 0.021246053 -0.026128132
0.024681725 -0.14036378 -0.087418951
0.12936662 0.043228887 -0.10991318
-0.078718692 -0.22318657 0.14385287
-0.16517694 -0.024614481 0.17050946
0.043685418 -0.10622425 0.16292675
-0.072623916 0.074833557 0.14017737
0.10405639 -0.039425291 0.13373366
-0.067936763 0.20711553 0.20520081
0.14795846 -0.21123704 0.21493489
-0.036555909 -0.12351698 0.16050965
-0.028653733 0.18571971 0.073297337
-0.084185153 -0.099912755 0.13460129
-0.0068271458 0.2228992 0.20624344
0.023624748 0.12055539 -0.10172145
0.028152764 0.21168557 0.29920739
0.13043028 0.18400475 -0.086632341
-0.016470287 -0.089212157 0.22921345
0.081161566 -0.20512569 0.084960207
-0.067694031 -0.010513159 -0.02769066
0.11417627 -0.011761293 0.021063497
0.018175093 -0.11998889 0.082796529
0.064003155 0.074908867 0.18757516
0.17199552 0.038103096 -0.09059751
0.097548097 0.17146909 0.014008131
-0.064091265 -0.020281635 0.084157899
-0.1347256 0.090518579 0.11060472
-0.038999081 -0.21919999 0.29699609
0.10262946 0.026850224 -0.0093482882
-0.11763082 0.12596522 0.062019743
0.042891514 -0.058397494 0.058481306
0.13590139 0.18943454 0.08759328
0.066904202 -0.037388265 0.30567178
-0.12818637 -0.10154802 -0.12304129
-0.0079765171 -0.055076499 -0.021418169
0.017411448 -0.011170134 0.00078623742
-0.10843924 0.10196949 0.077094227
0.062971644 -0.15926699 0.025303356
0.0067039737 0.023744792 -0.046599306
-0.13001037 -0.02495414 0.032939408
-0.109566 -0.15973967 0.067827225
0.022729896 -0.16224922 0.093802765
0.18907672 -0.10749623 0.034909688
-0.0041632429 -0.080398068 0.033731151
0.034907021 0.063178152 0.13006639
0.1388599 0.055202879 -0.039574951
0.13131514 -0.023829713 0.15015317
0.10792244 0.095850907 0.18623313
-0.12678149 0.018586485 0.17758867
-0.069453746 -0.025785729 -0.060405076
-0.019224349 0.097690202 0.091633551
-0.11573364 -0.015009391 -0.14651483
-0.058943007 -0.062414117 0.070505507
0.035275772 -0.067036323 0.058874693
-0.033546295 0.20783398 0.091673203
0.08082737 -0.23732805 0.025975462
0.10269801 -0.081083402 0.13977543
-0.18403307 -0.13851863 0.04137098
-0.076241046 -0.13787854 0.22976421
0.0095034838 -0.01062933 0.04639446
0.28240943 -0.22387938 0.091952488
0.12800428 -0.11023837 0.020968214
-0.0079949852 0.138308 -0.12346437
-0.20158383 -0.01716407 0.060864158
0.17332372 -0.14127915 -0.079180136
-0.052348092 -0.13288543 0.030808628
0.099098906 0.083550774 0.20895071
0.093359813 -0.15137576 0.085249767
0.15741396 -0.25377595 -0.17562155
-0.051762693 -0.081931554 0.11596876
0.033779588 0.073294878 0.029106736
0.21223682 0.067175068 0.12424266
-0.16040319 0.071350217 -0.044016987
0.033253182 0.058273632 0.068343841
0.1850106 -0.11428648 -0.0015526041
0.3251715 -0.066506192 0.20298399
-0.16945551 -0.010057949 0.061241094
-0.21472153 0.14073578 0.13312861
0.049430192 0.027829975 0.15507682
0.15344331 0.0091794683 0.16729337
-0.063193195 -0.0037473366 0.1300173
-0.02155764 -0.14258286 -0.01687984
-0.19153284 -0.18874669 0.046709206
0.09580557 0.0088512916 -0.15396073
-0.2090293 0.12265432 0.079444647
0.22564876 -0.046311297 -0.031585895
-0.037071288 0.015716422 0.19983542
-0.063620821 0.16477259 0.31663388
-0.004682567 0.030903546 -0.0089374781
0.0081389397 -0.15143742 0.10133238
0.14127117 -0.073742546 0.071751133
0.071475185 -0.11609405 0.10050784
-0.058127269 0.017477786 0.004035905
0.13738789 0.020002365 -0.031911761
-0.05188388 -0.1465227 0.0086201541
-0.03412234 -0.049730957 0.27319551
0.079251841 -0.11819499 0.023786984
-0.14879265 -0.048288181 0.2424759
-0.11487208 -0.04844157 0.17207028
-0.19436201 -0.057293773 -0.066072121
0.033366907 0.22723737 0.016527556
0.0055780914 0.11152077 0.14596196
0.044149719 -0.016018186 0.053753518
-0.0062967725 0.27516657 0.13441309
-0.075342715 0.14973544 0.075018413
-0.037252713 -0.094400756 0.076710016
0.23112562 0.19803849 0.05353475
-0.013187141 -0.19162403 -0.21338341
0.054528065 -0.19965401 0.11962879
-0.079806 -0.068012059 0.079000533
0.06040135 -0.1165949 0.10585496
0.2130262 -0.16096078 0.16720936
-0.16926327 0.046770271 0.2437415
0.27244547 0.12709115 0.15957229
-0.054171108 -0.086646557 0.24303451
0.027525529 -0.063263103 -0.05163059
0.1583277 -0.031279463 0.21131808
0.067697994 -0.070905939 0.12721485
0.076062888 -0.058645748 0.14691298
-0.10382485 0.053429231 -0.055284228
-0.044674553 0.12198133 0.12257409
-0.12524006 -0.20690237 -0.13243745
-0.087904699 -0.084344499 -0.093046539
0.01800159 -0.16536117 -0.088952184
0.045439396 0.025781661 -0.076964818
-0.25835106 0.10988961 0.025683636
0.26936799 -0.019726492 -0.12429236
0.084037498 0.01675988 0.014574805
0.13549159 -0.050323576 0.12233447
0.067891806 -0.022886723 -0.07208959
-0.07716947 -0.04317398 -0.10263198
0.023431055 -0.23842275 0.037389413
0.069745272 -0.12234683 0.16887918
0.1928772 -0.19925031 -0.17113949
0.025546785 0.14633748 0.077778399
-0.091799915 -0.077094577 0.0069498904
-0.05452067 0.16185728 0.13019396
0.26346493 0.1864579 0.022499541
0.028124113 -0.21433958 0.11379907
0.038070727 -0.069764212 0.12990029
-0.027607469 -0.12407549 0.00071024336
-0.080605894 0.054464065 -0.013750889
0.03159358 -0.048124567 0.12449084
0.049685866 0.049869396 -0.067861259
0.029481895 0.05508342 0.021468164
-0.0911934 0.23601857 0.081313625
0.058803611 -0.11700251 0.084640056
-0.14686315 0.056937188 0.022549745
-0.057973891 0.079976603 -0.090119131
-0.31831044 0.062777191 -0.18871194
-0.0020832326 -0.11728867 0.12796766
-0.016915791 -0.0067649554 0.193059
0.053766247 0.13713528 -0.011661179
0.012486331 0.018051513 -0.12582189
-7.3030591e-05 0.051256157 0.083245598
-0.06054765 -0.10167797 0.086123183
0.050801318 0.11112649 0.093410134
-0.14144596 0.16477527 -0.1460163
0.14590612 0.14136782 -0.042555101
0.1078337 -0.25515947 0.19897795
-0.048875514 0.03114488 0.095783964
0.14085367 -0.098671779 0.28210318
-0.15761229 -0.22140801 0.055252753
-0.28647685 0.027080517 0.11036053
0.061780393 0.018001579 0.16681314
0.041709188 0.1146992 0.096972674
-0.1608467 0.073914379 0.21709006
-0.059256464 0.16788751 -0.017738743
-0.074345611 0.031200927 -0.021247163
-0.12818408 0.044667635 0.093736738
0.21585099 -0.30737334 0.22747651
-0.11449768 -0.052597158 0.12364631
0.1540848 0.021909766 0.13520943
0.13365602 0.0737077 0.074586466
-0.019876525 0.0023630634 0.040208247
0.13244811 -0.1293993 -0.12030552
-0.010357386 0.036454596 -0.20771345
0.029015005 0.074259877 0.27741897
0.078812972 -0.11819918 -0.0057770237
-0.15225703 0.063443765 0.014399402
0.0034525059 0.080886655 -0.059434775
-0.01604297 0.20561469 0.055455033
-0.029301744 -0.0092108101 0.022276098
-0.072700419 -0.13892443 0.085592598
0.049594518 0.15783235 0.094907209
-0.091678753 -0.034918096 -0.018322472
-0.10090525 -0.11627306 -0.01191909
-0.00049734488 0.081222698 0.14628248
-0.0034252442 0.0028804466 0.061965574
0.16447553 0.021842415 0.03928306
-0.057601918 -0.13248497 0.21480209
0.091361754 -0.017544845 0.091308124
-0.00031428039 0.039784033 0.15274245
-0.13666041 0.13752526 0.27515548
0.093317963 0.081931822 -0.0025148988
0.044123605 -0.1489317 -0.003172867
-0.038774036 0.049647085 -0.025546521
-0.019315094 -0.18096463 0.12434188
-0.08293689 0.051629562 0.037723854
-0.055839136 -0.027016666 -0.043247439
-0.12553482 0.051075689 -0.071100153
0.20166859 0.0025223242 0.1806035
-0.058308419 0.025162347 0.065741852
-0.044542946 0.016769096 0.083728924
-0.0062141344 0.023662381 -0.16385265
0.094797835 -0.13629149 0.14867462
-0.2017637 -0.017979484 0.035546746
-0.1143407 -0.14013565 -0.081726655
-0.0066440776 -0.11523175 0.0049783168
-0.17218021 0.0017703474 -0.12185258
0.11595805 0.010620385 0.18008256
0.027163181 -0.17658189 0.17109217
-0.042055316 0.10398324 0.010822382
-0.15548265 -0.18045887 0.2619141
0.019554043 -0.03362542 0.1727028
0.077059671 -0.23749822 0.15987465
-0.079212055 -0.11359005 -0.10237336
0.016352225 -0.15115619 0.18281183
-0.064628422 -0.020156896 0.18425126
0.15416446 0.13347426 0.16982219
-0.17650749 0.13991931 0.087427184
0.27470759 -0.10265183 0.14072566
-0.04533853 0.01862498 -0.12369539
-0.040336922 -0.17143433 -0.16592358
0.076224953 -0.1142166 0.070985101
-0.032529518 0.0065671336 -0.07845816
-0.17442374 -0.24021311 0.18696037
-0.073524795 0.035989624 -0.0016558915
0.14351398 -0.15724361 0.062464137
0.028275572 -0.074238345 0.19909611
-0.075573057 -0.13453986 -0.061729215
0.16903178 0.19464748 0.049309194
0.12583907 -0.059154712 0.18270293
0.050293446 -0.1283537 0.20823255
-0.11069513 0.00045214593 0.0086897165
-0.13861176 -0.045429099 -0.18851952
-0.024167798 0.040914182 0.2653192
-0.027512878 -0.23315841 0.0020189509
-0.046815496 0.029255036 0.025754593
-0.20716476 -0.016138604 -0.18216699
-0.032710016 0.10030146 0.074308105
0.033497877 -0.038656473 0.12821122
-0.19559436 0.11967728 0.090469524
-0.012509879 -0.048140161 0.12700197
0.057771176 -0.11972183 0.015406325
0.10675574 0.088308975 -0.044713881
-0.10263909 0.02345939 0.17536929
-0.075172782 -0.055800278 -0.052353054
0.18446678 -0.0062099621 -0.029869977
-0.15549977 -0.064850435 0.059419639
-0.098333262 -0.045255095 0.26361021
-0.092363834 -0.012788966 0.099451587
0.087022483 0.10997178 -0.12688579
-0.012100391 0.090181328 -0.18626915
0.14912227 0.14853494 0.24264424
0.078252897 0.01106176 -0.20073973
-0.026244789 -0.041620094 0.16855067
-0.054470278 0.084702425 0.0028093383
0.03766007 -0.1151288 0.011259764
0.10634345 -0.065055057 -0.0094868932
0.096692227 0.1451035 0.11125946
0.014358565 0.029125806 0.13564004
0.01752555 -0.18537299 0.20869392
-0.06162582 0.02373115 0.10179745
-0.0278697 -0.093046203 -0.11020818
-0.03209684 -0.068884082 0.064466797
-0.091602586 0.038634147 0.10351079
-0.004427705 0.11484976 -0.10638937
-0.19589043 -0.053419463 -0.0065282881
0.02983037 0.17055404 -0.050287955
-0.085431173 -0.028918684 0.21032897
0.026106792 0.18097721 -0.18219323
-0.035646349 0.23161036 -0.13096949
0.14262138 0.04262282 0.16546154
0.20532177 0.0062791854 -0.041673012
0.043293208 -0.012835738 0.078595065
0.064112708 -0.1100081 0.10973876
0.21276402 -0.18108162 0.017936008
0.14140375 -0.069025464 0.05997159
-0.016566237 -0.2555275 0.17015179
-0.018063767 0.017294578 0.17897034
-0.056400336 -0.11720391 -0.096644536
0.027495556 -0.043170307 0.10194172
-0.030316336 0.12555508 0.011247605
-0.2933192 -0.098363683 0.10499988
-0.21531957 -0.056403078 0.10818857
0.15599407 0.25753099 0.12732555
0.019587636 -0.049043104 0.0082896929
-0.13950416 0.037769035 0.18533026
-0.17649612 -0.041233242 0.043516941
-0.099585474 -0.049218323 -0.00049654394
0.21497355 -0.038835473 -0.025472425
-0.11606073 -0.082620434 0.049833603
0.03675336 0.10541502 -0.083196945
0.1660278 -0.034935001 0.071856871
0.031399842 -0.060453229 0.046910733
0.018133912 0.0091252718 -0.25038993
-0.11016446 0.1784227 0.16240048
0.027529774 0.07930477 -0.1095532
0.11987647 -0.015986228 -0.15114734
0.022465682 0.029155571 0.029216647
0.016885944 -0.11315678 0.050445437
-0.18607187 -0.022737268 0.24532144
0.089180276 -0.13420396 -0.086256988
0.041805815 -0.037450243 0.036909401
-0.089124158 -0.062836282 -0.08825013
0.036942922 0.080048859 -0.0090319356
-0.038848825 0.22983038 0.0068580136
-0.045476038 0.13971615 0.13591993
0.021460235 -0.006401137 0.20561431
0.10865016 0.033454075 -0.04993777
0.0285623 -0.048089754 0.10629185
-0.016452286 0.15797862 -0.14729623
-0.050302193 -0.03690473 0.038853914
-0.11741623 -0.1006441 0.26161546
0.0067693517 -0.097269647 -0.088019937
-0.05962709 -0.0093201697 0.054199174
-0.011172256 0.12726468 -0.10467909
-0.059745587 0.072747074 0.25893602
-0.020727009 0.067823693 -0.0078356564
0.011594459 -0.21149643 -0.067377307
0.071103431 -0.051207896 -0.061060339
-0.031912148 0.12672727 0.16556007
0.026075765 0.025453135 0.037719399
-0.14334401 -0.017460439 0.14876717
0.059278447 0.041069306 0.10915407
-0.092617095 0.17581296 -0.13203034
0.030598434 -0.27636454 0.10573181
-0.040280119 -0.044708386 0.091410905
0.12140617 0.11167634 -0.067818403
0.068105407 0.034727037 0.12786247
0.074531779 0.09834636 -0.1127362
0.066775285 -0.0034663603 -0.094052143
-0.21978158 -0.03283681 0.15062866
-0.058823973 0.0071401075 0.098175414
-0.11540578 -0.11810833 0.069621235
0.13816974 -0.22015247 0.042681865
0.022202842 0.028424086 0.087980002
-0.191181 0.13874276 0.018289451
-0.010998607 0.079285882 0.056814805
-0.0120221 0.31486088 -0.030833356
0.079792768 0.049584772 0.297838
-0.013247568 -0.0049967393 0.041260894
0.091938853 0.034124233 -0.12104486
-0.02875747 0.067318119 0.037223414
-0.10750161 -0.19795308 0.039688818
-0.11283414 0.074925512 0.08380983
0.039578889 -0.088541307 -0.032792404
-0.027901711 0.21161953 0.024539366
0.053397182 -0.17890623 0.060351081
-0.016359434 0.062806517 -0.028790195
-0.010763925 0.22321942 0.051785164
-0.004063122 -0.093839221 -0.00087983441
-0.01702375 0.0061138179 0.065620936
0.046214312 0.084960252 -0.008571662
-0.0057588257 -0.053069863 -0.087953284
-0.043896422 -0.045822468 0.15903331
0.030811183 -0.019161861 -0.16346434
-0.082025625 -0.18642138 0.0049883556
-0.093582124 -0.010984905 0.13108735
0.081987895 0.135013 -0.27394462
-0.080546431 -0.011128281 -0.05396463
-0.067683898 -0.032499872 0.15257287
-0.063848391 -0.26419616 -0.21769691
0.0051468611 -0.083631441 -0.055177346
0.11694376 -0.27251983 -0.060018197
0.14077982 -0.070091829 0.19692963
0.13764253 -0.14492877 0.089002199
0.093673334 0.031305775 0.31567174
-0.019069936 -0.10854733 -0.063563123
-0.1085486 -0.020376384 0.091360658
-0.097719625 -0.15629755 0.15439606
0.029379118 0.044939734 0.15480518
0.12432121 0.17953649 -0.066961542
0.008038599 0.04576708 -0.089588627
0.065401189 -0.12771194 0.086270273
-0.093246035 0.069954038 0.082510442
0.12854573 0.020431202 0.15552008
-0.032993212 0.018931992 -0.046041597
0.011907946 0.042982757 0.10432234
0.15667556 -0.25890112 0.15747491
0.065955929 -0.078708351 0.057466172
-0.10478775 -0.14984202 0.02599638
0.083879299 -0.061591998 0.19664407
0.10389684 0.0095009943 -0.17629001
0.17838925 0.15253422 -0.073662266
0.030490369 -0.077330515 0.13178359
0.094732627 -0.084808774 -0.029221352
-0.23942879 0.037283864 0.0021780618
-0.022780247 -0.098993525 0.28192127
-0.098128118 -0.18802145 0.17338274
-0.11042793 0.10981134 -0.10935631
0.13872632 -0.013799258 0.1201615
-0.028775852 -0.05993513 0.10275902
0.077913582 -0.11290798 0.1677274
-0.11222535 0.0034285691 -0.056848556
-0.0030765347 -0.095422879 -0.17794789
0.1452287 0.08499185 0.00079041533
0.035128657 0.099703684 -0.017372819
-0.029428639 -0.23655574 -0.071670368
0.08520627 -0.045214709 0.32072353
-0.079763211 -0.25085267 0.07665623
0.076628581 -0.1712504 0.065633804
0.012557633 0.00060684234 0.14579482
0.13102028 -0.014007713 -0.067298599
-0.22292095 -0.019449433 -0.045475066
-0.16345784 -0.0035809763 0.18581942
0.10340504 -0.067596965 -0.12961595
0.076308183 -0.12804914 0.026836812
0.088515595 -0.15266672 0.13986267
0.15986311 -0.21421267 -0.1771259
0.13466042 -0.064538658 0.090329103
0.20535132 0.10743949 0.074529521
-0.013060097 0.02459076 -0.083041929
0.10741021 -0.032284938 0.067603253
-0.14923283 -0.06313546 -0.15633088
0.054623157 -0.11078322 -0.10508743
-0.20839773 -0.20756577 -0.013384503
0.095511414 -0.0042399392 -0.026486754
-0.11285501 -0.056902491 0.026856847
0.10337587 -0.042529047 0.14649197
0.069982663 -0.017283967 0.072681345
-0.064447969 0.15620172 -0.22856271
-0.013291296 0.11829364 0.12804346
-0.13786823 0.26784503 0.058451619
0.10436314 -0.26244754 -0.035180248
0.064520866 -0.17200956 0.18977115
-0.086528026 0.15023062 0.16281709
0.11421005 0.050554492 -0.13168839
0.026404278 -0.26724237 -0.059268419
0.1239109 -0.0077348538 -0.10582447
-0.013953254 -0.09916798 0.1430435
0.16444179 -0.015931206 -0.048969269
0.025371421 -0.15440391 -0.073511362
0.0014624968 -0.19522014 0.081573293
0.11533862 -0.12541805 0.10787092
0.036482438 -0.21207243 0.079898067
-0.094967514 0.061862744 -0.040230963
0.048169207 -0.051615849 0.15024324
-0.089824051 -0.050959811 0.10853507
0.088552207 -0.32564893 -0.00898844
0.39076176 -0.041554432 0.10621453
-0.17954279 0.014883064 0.039232865
-0.090305939 0.16409266 -0.03144763
0.064361259 -0.022765324 -0.030143583
0.047112126 -0.20568182 -0.092213586
0.053680919 -0.29722428 -0.057277117
0.086723432 0.041253269 -0.052080918
0.070228942 -0.028905906 0.011880897
-0.074889764 -0.099007443 0.033845738
0.075987101 -0.20773239 0.036004815
0.0038427152 0.012248958 -0.10487944
-0.087225653 -0.061069895 0.13262956
0.14712596 -0.059610739 0.13730538
0.18398404 -0.28079438 0.2796132
0.10984207 -0.074973784 -0.075757354
0.011309877 0.057304636 0.092819586
0.062344231 0.041057691 -0.007062491
0.071884975 -0.11211345 0.015236907
0.017114498 -0.13352038 -0.036096834
-0.041618824 0.045774437 0.19927335
0.0069734678 -0.11676491 0.091915488
0.020767946 -0.16333218 0.016784422
0.029794037 -0.16007671 -0.12000382
0.072720215 -0.25306684 0.41871575
0.020480175 0.097742073 0.068110742
0.099161513 -0.047331452 -0.13776603
-0.15344535 -0.33038133 0.03319478
0.079574458 0.10541648 0.090198904
0.061697099 0.16564353 0.10941958
-0.11836806 -0.010721259 -0.08308997
0.13420179 -0.088281862 0.099082232
0.08511468 0.018279493 0.04452794
-0.024785988 -0.2561115 -0.041180342
0.026646394 -0.040114354 0.151867
-0.0035881335 -0.067250669 -0.064073294
0.084158629 -0.09095186 -0.10763329
-0.012919139 0.055715434 0.17391706
-0.11297666 0.043332804 0.083387814
0.072049618 -0.030881688 0.28637952
-0.077836305 -0.0045437813 0.18610239
0.10506995 -0.16233172 0.1190265
-0.018207651 0.059468299 -0.27095327
-0.085823283 -0.24778704 0.012357092
0.025540024 0.049113683 0.19832584
-0.091674723 -0.065999947 0.054309707
0.061428636 -0.055584308 -0.1439435
-0.099057168 0.030334219 -0.027580027
-0.055204503 0.0068984367 0.090307333
0.042120107 0.036016464 -0.10588811
-0.077934228 0.045076702 0.01150652
0.014389999 0.15349396 0.089972362
0.1715236 -0.003066346 -0.051083595
0.1463078 -0.00096438546 -0.049125925
-0.13350034 0.0504722 -0.13106236
0.087608799 -0.1518981 0.14962742
0.018200746 0.035792068 0.16994217
0.02558621 -0.079581447 0.062853932
0.029600773 0.24149093 -0.15865281
0.14802903 0.12258151 0.062119983
0.014883991 0.17317915 0.052608963
0.083105177 -0.06195664 0.23184834
0.09795437 0.051061418 0.10055471
-0.1028384 0.035255447 -0.0031543337
0.013492212 0.058232173 0.032731574
-0.047730856 0.0091921091 0.234703
-0.10860229 0.14165062 0.029986987
-0.044709917 -0.12232238 0.15745486
-0.14738762 0.003958676 0.14394386
-0.032998759 -0.024191387 -0.16616537
0.012757778 0.06463252 0.058920644
0.058834419 -0.062588476 -0.1134031
-0.23944788 0.042166531 0.033273101
0.16898733 -0.16405195 0.06455981
0.038500167 -0.18066108 0.065340929
-0.085305497 -0.023759553 0.15015419
-0.036037572 0.1220331 0.089073308
0.11968635 0.17527944 0.41351211
-0.068209194 0.04478607 -0.049829468
-0.040932 0.0095108747 0.20421501
-0.045137752 0.095219821 -0.058076799
-0.033373412 -0.0074867681 -0.19571602
-0.0048467368 0.15820017 -0.054779872
0.020373501 0.14387381 0.1091845
0.060350638 0.051405638 0.09688139
-0.020267591 -0.017385755 -0.0089071756
0.0088751297 0.084971763 0.041313954
0.25197646 -0.22041129 0.18188947
-0.084996805 -0.062717192 0.077760056
-0.17850766 -0.017044736 0.11904737
-0.072055459 0.18882251 0.11936618
-0.11484821 0.10834019 0.022101801
0.20439331 -0.15911064 0.1107216
0.11067212 -0.067182712 0.03041625
-0.092895985 0.29836774 0.11427624
-0.013437631 -0.067541353 0.23365122
-0.064602427 -0.063044071 0.11631759
0.034378652 -0.086166255 0.090298973
-0.093061596 0.072339252 -0.073533833
-0.020073649 -0.040163275 0.24978164
0.062820822 0.073466592 0.19209653
-0.11308011 -0.12433342 -0.24161671
0.10610654 -0.043226313 0.03767712
-0.038026914 0.084421568 0.041904472
0.11437775 -0.21279773 0.2012282
-0.0040472969 -0.11832025 -0.033216525
0.032345645 0.14610705 -0.090304621
-0.019684136 0.062135566 -0.029833021
-0.045869149 -0.17640941 0.26224601
-0.099943623 -0.13272941 0.08639273
0.0048617199 0.00095341727 -0.02546984
-0.11345466 0.051553629 0.045600027
0.12870088 0.1535421 0.16195114
0.16652003 -0.1066504 0.039147861
-0.071960904 0.073956035 0.090303943
-0.16955519 0.028730797 -0.077150524
-0.065805063 -0.18008173 -0.025417674
-0.076257803 0.11057988 0.22570202
-0.20496491 -0.061172318 -0.058224697
-0.018662058 0.1392675 -0.027186766
0.06726861 -0.017458241 0.057432503
0.067729898 0.18933479 -0.03982722
-0.075938448 -0.18300571 -0.032421108
-0.051947944 0.066702053 0.012633294
0.1525795 0.027547076 0.17251797
0.05811134 -0.10331409 0.097416349
-0.063075714 -0.074674062 0.051688541
-0.060500607 0.11853269 -0.11333943
0.069364876 -0.009543784 -0.27811077
0.099595532 -0.21762878 0.23465762
-0.044880208 0.099435702 0.2252312
0.10280259 0.049336594 -0.010460541
-0.18414602 0.10196338 0.13778752
-0.17141248 -0.18858513 -0.08691287
-0.16473056 0.27724472 -0.18197429
-0.024926033 0.023547195 0.12046063
-0.007398773 -0.12320565 0.023421664
-0.02778892 -0.12950422 0.063852385
0.14690191 0.045952961 0.082216874
-0.05408103 -0.17991251 0.17800042
-0.11731948 0.12395737 0.031974319
0.022677049 -0.076873846 0.09872289
-0.17062056 -0.27076423 0.087085754
-0.12230469 0.023827318 0.030362792
-0.15267795 0.019040357 0.18728575
0.15593983 0.033399835 0.17106974
-0.1470622 0.046190329 -0.11806998
-0.057856258 0.071829915 -0.018201843
0.11904936 -0.046006102 0.041724719
-0.099768713 -0.023084989 -0.046643302
-0.047917146 -0.033924438 -0.25270411
0.11380446 -0.15872163 -0.031096112
0.096767962 0.0038550422 0.13538057
-0.13936818 -0.051146034 -0.060966436
0.032643095 -0.011646397 0.020687968
0.14931984 0.15075263 -0.023700222
0.20549449 0.048212793 -0.051498707
0.11878169 -0.13147622 0.056911182
0.14587218 -0.086716309 0.24704841
0.045779638 0.12983352 -0.12413529
0.18731987 -0.11805212 0.083384335
0.098815203 0.13304946 0.057777729
-0.10675089 -0.13811404 0.10950381
0.0849448 0.022521175 0.077143066
-0.10267615 -0.16456175 0.039085574
-0.14541075 0.063284457 0.018476304
-0.11191355 0.14165604 -0.0067780819
-0.25100803 -0.0063654184 -0.022819828
-0.13072078 0.17631574 -0.085118309
-0.042491753 -0.0081257671 -0.073013633
0.12741061 -0.069962479 0.025705524
0.038351305 -0.054419298 0.14013189
-0.17779788 0.096681207 -0.087534465
-0.094639741 0.013461579 0.20597336
-0.022745874 -0.12958394 -0.062571615
0.0063407794 -0.15239732 0.29274428
0.013517402 0.079797946 -0.092540473
0.22617146 -0.18253317 0.034757107
-0.0040209591 -0.20250142 0.049472298
0.074240535 0.038012166 0.21662977
-0.034678835 -0.081962317 0.058112316
-0.0065739453 -0.032707669 0.072316661
-0.017180275 0.073874414 -0.20399208
0.023222951 -0.070541061 0.035822466
-0.10377857 -0.10954162 0.020397533
-0.028318457 -0.12751772 -0.14559141
0.057317942 0.10643096 0.086252086
-0.03063203 0.10041592 0.14739917
-0.1150191 0.043729559 0.053171426
0.10230207 -0.03265097 -0.046870667
0.27391735 0.084277131 0.056368109
0.020290121 0.11293 0.13834824
0.0030196942 -0.14593506 0.14614077
0.0041856766 -0.029598333 0.017436126
-0.10406666 0.042662606 0.052829951
0.16195294 -0.078787215 -0.12090617
0.048659697 0.12243201 0.13563322
0.062993944 0.092653573 -0.10110642
-0.14254557 -0.13694614 0.10858361
0.0016942956 0.035050053 0.012397148
0.069180839 -0.14766422 -0.035243973
-0.054836117 0.088074222 -0.10463718
0.052856348 0.097888358 0.11173024
-0.028260807 -0.053204194 0.14702338
-0.076982282 -0.055797808 0.050349005
-0.2312475 -0.094392508 0.12027673
0.15326014 -0.061067335 0.13618249
0.050546315 -0.1449312 0.050209992
-0.099711202 -0.12406053 0.074191794
0.084547102 -0.075091168 0.10869691
0.085707769 0.0083606755 0.13407022
-0.20813683 0.068299539 0.041986488
0.10940152 0.10975806 0.012874784
-0.13651735 -0.11317861 0.014041767
0.22363728 0.053369671 0.067158125
0.035642717 0.046353653 0.034663025
0.17756665 -0.12362981 0.012073935
-0.15427104 0.12772892 0.039482851
-0.13259658 -0.053197015 0.097759143
0.18039428 -0.067796543 0.08052852
-0.092577681 -0.074284777 0.13006932
-0.15317263 -0.13171816 -0.1770834
-0.057359889 -0.064319797 0.048135262
0.0088152699 -0.12796731 0.17744698
-0.084435791 -0.09412653 0.036396902
-0.12227236 0.11447473 0.17520586
0.19135176 0.071253702 0.21542977
0.19740082 -0.25997788 0.078513458
0.28198704 -0.029992403 0.16591461
0.045480248 -0.14470297 0.21768357
0.080852367 0.19015317 0.029168218
0.086924836 -0.075870633 -0.016844915
0.078071639 -0.031005828 0.24931556
-0.090120122 -0.052300248 0.0031428263
-0.042296186 -0.014022298 0.25341427
-0.0054283105 -0.092848197 -0.017864618
0.23146319 -0.033000801 0.078671776
0.28244841 -0.065166444 0.17529377
0.12768549 -0.095549524 -0.22403602
0.066472068 0.13993542 -0.039276622
-0.0080382526 0.11583687 0.0061602541
0.17161392 -0.25541443 -0.026048966
-0.0059673819 -0.0015486218 -0.013857707
0.28177905 -0.18441088 0.014528218
0.066598408 -0.058073595 0.055815652
0.33417305 -0.08112321 -0.13840948
0.018607585 -0.024388896 -0.18238375
0.099729694 -0.1973848 0.0066459496
-0.057214782 0.013711231 0.18704891
-0.098192155 0.03138075 0.15106586
-0.22835727 -0.15091972 0.10157698
0.038023435 -0.037196595 0.083317026
0.059152901 0.041187562 0.048931912
0.01258726 -0.036871791 0.14025292
-0.15003842 -0.15388051 0.0070267944
-0.026819577 -0.061655633 0.1274333
-0.019802064 0.022987487 0.049501434
0.016529296 0.14154762 -0.12558536
-0.10867906 -0.087559171 0.035552531
-0.15900163 0.0010690428 0.0030694231
-0.070223436 -0.14403118 0.085865214
-0.02727 -0.11091764 0.021824233
0.13084114 -0.16640145 0.059982628
-0.029214468 -0.21782851 0.040916912
-0.19345507 -0.067545012 0.062900946
-0.19676091 0.041728299 0.093621083
0.041129865 -0.070702523 -0.03636986
0.13075101 -0.15530692 0.096843652
0.07352671 0.044076875 0.028836735
0.018190587 -0.036007285 -0.12173857
0.12696609 -0.036782481 0.12517284
0.0046767266 0.00084238127 -0.17406824
-0.023456249 -0.0010530706 0.078100823
-0.08040642 0.11888242 -0.15839493
0.30952489 -0.1697709 -0.054096051
0.23022562 0.073793069 -0.078226231
-0.005693438 -0.020615745 0.038647115
-0.05441688 0.2503143 -0.12969722
0.15571588 -0.0068948762 0.2129516
-0.089794517 0.12553702 0.027674459
-0.11165601 -0.12635009 0.038706493
-0.055213902 0.045865513 0.17216565
0.025287084 -0.092570081 -0.068102717
0.20520368 -0.068652511 0.014291599
0.043693133 -0.11877757 -0.084984556
0.087632209 0.16063139 0.021733016
-0.23045644 -0.052908659 0.096149527
-0.20739566 0.046508797 -0.02714882
0.15782505 0.14532925 0.11833645
0.037507512 -0.036731236 0.002008602
-0.15886651 -0.057021987 -0.10869053
-0.075394005 0.099293776 -0.00089502335
0.036963984 0.066718385 -0.014146026
0.037011653 0.01283069 -0.0075538922
-0.10264217 -0.017481603 0.045226701
-0.043529838 0.084642187 0.026060902
0.070621096 0.16916192 0.092233926
0.052337937 -0.16537397 0.30708906
0.061884798 -0.00011307932 0.1283112
-0.004183583 -0.10427377 0.099907234
-0.15356998 -0.071133398 -0.21074353
0.19660369 -0.0095338561 -0.1127367
0.15443808 -0.22615871 -0.054891109
-0.009258328 0.12525229 0.19681303
-0.013910375 0.10823101 -0.15106142
0.2188962 -0.070834339 0.10904668
-0.14911745 -0.18204036 0.072692603
0.058908749 -0.042336874 -0.12828091
0.010036483 0.1910594 0.033680171
0.13794447 -0.027247865 0.19803847
-0.0012708306 0.057134911 0.062150549
-0.024865521 -0.068586215 0.21528947
-0.018038999 0.039530613 0.15110421
-0.050021127 -0.057750549 0.071498752
-0.0053042024 0.040906467 -0.17730013
-0.1860846 0.12508437 0.20371526
-0.096400559 0.038574178 0.11314524
-0.170311 -0.06773594 -0.061347343
-0.035353944 -0.11421476 -0.0001373291
0.08655186 -0.22904745 0.035840977
0.14985095 -0.071746446 -0.0068429708
-0.09678106 0.083609596 -0.13000342
0.00010832958 -0.1693818 0.04343529
0.12196558 0.019968893 -0.084286094
-0.03254642 -0.19368163 0.12667093
0.066365249 -0.091441073 0.20776704
0.17455646 -0.14537513 0.0447198
0.055334695 0.085527018 0.064317867
0.048056148 -0.077772908 0.10977723
0.013406064 0.17146853 0.023563568
0.2641471 -0.0064278897 -0.017775737
0.060786046 -0.087389253 0.12744096
0.010969884 -0.11413006 0.088366508
-0.097470671 -0.045051832 0.081177786
-0.0021036379 -0.082025141 -0.0076364335
0.074536838 -0.14754692 -0.071482226
0.062811397 0.084806159 -0.033293795
-0.20364416 -0.14490271 0.037396833
-0.16250186 -0.053162072 -0.014855996
0.2752142 0.0038503222 0.00066026906
-0.098039478 -0.0030135587 0.15791886
0.19171074 -0.014294513 -0.079731263
-0.18534149 -0.089237228 -0.17872232
0.015960172 -0.048076347 -0.021250034
0.10143647 0.16635114 -0.11473711
0.010907689 -0.23415945 -0.02348882
-0.10077971 0.14461243 -0.10634255
-0.04271673 0.19253832 -0.038478136
-0.065901123 -0.088396788 0.18041371
-0.076303184 0.099695377 -0.027956873
0.10151993 -0.15843937 -0.016509183
-0.020150406 0.10157183 0.0027504209
-0.011323273 0.30141622 -0.11162923
0.13859141 0.040240631 0.12154238
-0.035526492 0.17056662 -0.0939366
-0.048984647 0.018708348 -0.056203861
-0.06540665 -0.086467087 0.056171421
0.11715949 -0.2424396 0.11212136
0.067279905 -0.0033459626 0.090733096
-0.211973 0.15379447 -0.085523643
-0.08498922 0.14201599 -0.063784301
0.0031433888 -0.024555147 0.022596583
-0.054476783 -0.09724889 -0.10458295
0.17747091 -0.055893824 0.1028995
-0.081745408 -0.088367239 -0.18790574
-0.066133671 -0.11359589 0.053436615
0.043889999 -0.1142724 -0.21571994
0.033413354 -0.024627462 -0.046691041
-0.048367102 -0.014567595 0.17778367
0.095629126 0.18492979 -0.047827482
0.053271759 0.019795362 0.050748341
-0.041391809 -0.14730564 -0.011436999
0.030241467 -0.12307169 0.13379881
-0.09835048 -0.26549345 -0.065120779
-0.25066173 -0.053222332 0.092392124
0.048314407 -0.073211126 -0.1558692
0.016683862 -0.2807101 -0.029559143
-0.036934108 0.0019248649 -0.07089214
-0.13478649 -0.31220829 0.15426347
-0.18310343 -0.18130474 -0.082254298
-0.081732288 -0.030746769 0.089770861
0.14534119 -0.14986774 0.077826098
0.015782245 -0.061330296 -0.0040777475
-0.0051937252 -0.066407055 -0.072260924
-0.22433574 -0.010966316 0.11632337
-0.060096398 0.0096679199 0.094905242
0.023536865 -0.0041427538 0.028730603
0.048306175 -0.13115379 -0.10813224
-0.001388777 -0.017338943 0.23759723
-0.043910094 -0.076224014 0.016066987
-0.21713917 -0.077910468 0.046861351
0.12541857 0.065535113 -0.03433127
-0.16831259 -0.035341069 0.24278323
0.39609161 0.11827463 0.047244057
0.018111117 0.2380681 -0.020905398
0.044977348 -0.17805837 -0.020548206
-0.085741416 0.030228566 0.17654385
0.020267555 -0.035066277 0.038950242
0.01464982 0.10042976 -0.011848502
-0.25235569 0.10274126 -0.038792312
0.040361959 -0.11445893 -0.087765016
-0.023489229 -0.058066756 0.13996419
0.068751693 -0.043185271 -0.011984764
0.022030516 -0.13714932 0.25418788
0.094601758 -0.12408163 -0.10147041
0.059351847 -0.12625322 0.071438566
0.079137176 0.060124569 0.047140367
0.13684894 -0.1005218 0.13234617
0.12355454 -0.065149404 0.010315504
-0.21308923 0.0062239692 -0.053528175
-0.079927348 0.24422741 0.12566428
0.14524363 -0.055189919 0.011833359
-0.05910277 -0.055153888 0.16436289
0.01380144 0.041152284 -0.11782913
-0.12522356 0.17876744 -0.13789806
0.020891555 -0.010911245 -0.19109906
-0.079147711 -0.031580947 0.11570754
0.045680307 -0.090093993 -0.013873182
-0.049293306 -0.2332384 0.078745037
0.002649717 0.021707151 0.038200855
-0.096932441 -0.042788014 -0.097446203
-0.08244516 -0.28405219 0.24023618
0.12511258 0.047526367 0.071077116
0.11019199 0.087686002 0.21617678
-0.067133114 -0.069822639 0.052124932
-0.17150711 -0.028344549 0.16478662
-0.065561071 -0.19888473 -0.041670084
-0.07094191 -0.017965622 0.016787875
-0.25713989 -0.18508756 0.17028823
-0.01226126 0.089115657 -0.1998802
0.08265993 0.03803755 0.063856423
0.12135562 0.0010976344 0.072964415
-0.15718016 0.1990082 0.10674606
0.089710712 -0.19839638 0.12588274
0.23990874 -0.11286595 0.12934607
-0.0072797686 0.014238864 0.18693838
-0.12104938 -0.01277808 0.20093384
-0.11153767 -0.072422154 0.17450711
-0.17009771 -0.075487792 0.011003394
-0.073710963 -0.089492187 0.10809193
-0.1851767 -0.15813321 -0.019075841
0.086942121 0.095104136 -0.03163138
0.070355631 -0.0051922351 -0.0017267838
0.12145495 -0.13753207 -0.0015809573
0.20003124 0.11678703 0.086904809
-0.043250591 0.073590085 0.063957609
0.005028449 -0.094634876 -0.013041857
-0.13727684 -0.049749259 0.13095517
-0.082582869 -0.15480158 0.071152523
-0.085030027 -0.0042509288 0.13996318
-0.19197863 0.061386004 -0.042115763
-0.11976706 -0.19618925 -0.094026722
-0.14568776 0.13724554 0.078175783
0.016554717 -0.070901707 -0.068564385
-0.0032443814 0.23049773 0.0010701008
-0.1274693 0.12217364 0.00092896819
-0.11341883 0.024654038 -0.078054473
-0.052552629 0.047583874 0.086620942
0.15081447 0.21697143 -0.0148647
0.072401755 -0.07780578 0.25606883
-0.10545143 0.017135145 0.23038948
0.16584489 0.095198467 0.051890612
-0.0194242 -0.13644433 0.1303696
-0.013987049 -0.062230919 0.2016433
0.02366288 0.095728442 -0.094132006
-0.034473184 -0.0016150102 0.034632787
-0.097379133 -0.038302589 0.094217271
0.012377441 0.062876448 -0.11912267
0.10981554 0.063462973 0.22257027
0.017275272 0.087027945 -0.01035621
-0.028344464 0.1175486 0.055570275
-0.16094565 -0.095527135 -0.067887999
-0.024595059 0.10224481 0.091758125
-0.096904486 0.026434235 0.054711431
0.0029155426 0.086320445 0.042625427
-0.040156066 0.00097350031 -0.10029528
-0.024246817 0.096083984 0.14955619
0.14443764 -0.23904067 0.2258597
-0.085719272 0.093739487 -0.22327466
-0.039218813 -0.10923469 -0.14118883
0.10714212 -0.12430551 0.039544862
0.13200416 -0.0072348639 0.11180707
-0.11763942 0.014153544 -0.049415227
0.12402615 0.044919044 0.1068145
0.040591419 -0.29696453 0.021536089
-0.00034240261 -0.052800808 -0.1584641
0.018957891 0.0784638 0.14398274
0.043174427 0.12116808 0.0076914318
-0.047747903 -0.08124505 -0.11639972
-0.002766218 -0.028106026 0.18928197
0.059438717 0.10947552 -0.032556348
-0.10433224 -0.017161964 0.14367287
0.051518146 0.030926401 -0.052700043
-0.027181406 0.13989967 0.13571329
-0.097384512 0.14790951 0.022615526
0.035051845 0.11767042 -0.036393996
-0.035288587 -0.088722467 0.18980908
0.0014425144 0.010062356 -0.15506363
0.0076703019 0.095989227 0.029727513
-0.056474179 -0.0091887601 -0.089967415
0.0056255907 -0.060374107 -0.15736435
0.033624656 -0.0239354 0.091873258
0.082016356 -0.30931306 -0.038727887
0.25038338 -0.011712059 0.030091569
0.25846988 0.19936296 -0.030502824
0.022509143 -0.18851066 -0.061834268
-0.14598666 -0.033983093 -0.04318893
0.16003674 0.10236713 0.19588427
0.0016473755 0.0050399043 -0.0026850402
0.0073094815 -0.077739775 0.079059139
-0.17371359 -0.092231676 0.12971334
-0.21875037 -0.12133484 0.1462851
-0.14696074 0.074446775 0.033202469
-0.048928473 -0.062147647 0.025349053
-0.11230124 -0.0011059244 0.17023557
0.010447588 -0.17507319 0.074709401
0.052811608 -0.096185632 -0.1131717
-0.1244711 0.038871463 0.22573233
0.049916975 -0.22598982 0.16757159
-0.019463034 0.16018596 0.16699356
0.081267789 0.16888881 0.014479302
0.055171717 -0.12133922 -0.10107025
0.15111302 -0.15787646 -0.061454915
0.20599291 0.10797434 -0.046491228
-0.15033498 -0.20753345 0.23703653
-0.0035675098 -0.14982478 -0.0022761018
-0.099517971 -0.19920325 0.2903775
0.026648097 -0.034946036 0.35697937
-0.15303393 -0.21264605 -0.0011872333
-0.14451884 -0.19551159 -0.045015253
-0.048510209 -0.0400461 0.12017465
0.0051660319 0.10431445 0.11396737
0.027371336 0.10650283 0.0055464655
-0.19997028 -0.13515437 -0.0046549402
-0.031693183 0.11844563 0.091273434
-0.042004034 -0.23985925 0.19918993
0.11152193 0.032133698 0.024028242
-0.066101812 -0.07971248 0.11056764
-0.018535284 -0.15354037 -0.26704481
0.031254768 0.043181118 0.029215515
0.091225669 0.12477484 0.079440117
-0.094763786 0.085786618 0.014878273
0.10189235 0.044986896 0.064937904
0.30653459 0.054417606 -0.02867277
-0.079871789 -0.0045782551 0.067858957
0.120761 0.050806187 -0.14659481
0.016192092 -0.27001303 0.016335394
-0.037424281 -0.047166757 0.1121731
0.13746502 0.09457951 0.12690108
-0.046842217 -0.0070670173 0.082734518
-0.08960326 -0.037411787 0.2005336
0.17920417 -0.1002854 0.022690885
-0.16329922 -0.073349126 0.17130232
-0.084179364 -0.088427812 -0.1506606
-0.051770028 -0.23016162 -0.020418093
-0.17734037 -0.026886769 0.12070361
-0.046936329 0.053095777 0.019986931
-0.036338419 -0.25975218 0.032203704
0.016893957 -0.24615587 -0.056646049
0.11146653 0.05916363 0.011436351
0.15359858 0.0024529472 -0.14566489
-0.11598817 0.012502939 0.14756645
-0.10275397 0.16903409 0.0015396988
0.05125276 -0.27007166 0.097061329
-0.13117652 0.21433136 0.094637617
-0.19524589 0.022817943 0.091956884
0.10284548 -0.10724598 -0.024453934
0.085435569 0.060445271 -0.034975238
0.013452305 -0.18258336 0.11497038
0.034678787 -0.078791678 0.0074154353
0.12418996 -0.0056613311 -0.057097197
0.099537089 -0.17822939 0.15961069
-0.087905914 0.22865915 0.071028292
-0.053241942 0.1094276 -0.067357987
-0.056907818 0.073954575 0.27470377
0.081417032 -0.11108473 0.13072315
-0.082574084 0.19401005 0.23605052
0.14202875 -0.17296633 0.089509636
-0.093703091 0.19719189 0.17897296
0.02990042 -0.19555551 0.12635878
-0.12182821 0.058943219 -0.098265305
0.072504878 -0.066595666 -0.13809094
0.12273743 -0.023979746 0.048108388
-0.083232366 0.13479014 0.10102113
0.023240821 -0.01097603 0.12612657
0.025903277 -0.035691403 -0.069168545
0.20790137 -0.044370614 0.05773665
-0.10359046 0.04384248 -0.15878958
0.11563787 0.18795611 0.13015407
-0.14240971 0.046347897 0.10806327
0.0037018135 -0.015363531 0.18855883
-0.22632125 0.32750586 0.19123493
0.094914742 -0.18019356 0.12004925
0.12876046 0.11439586 0.30103606
-0.18260281 0.088163354 -0.025575459
-0.025263257 -0.020405453 0.041205086
-0.0091653811 -0.00072840601 0.23132336
0.10698393 0.15356576 -0.060674284
-0.12246637 -0.094261013 0.034841724
-0.067272551 -0.089088127 -0.040318448
0.16285372 -0.33315736 0.001184274
-0.031945758 -0.08266978 0.088032767
-0.095503867 -0.15739119 0.27726427
0.033307187 0.10240287 0.026218094
-0.077834681 -0.023831867 0.10973811
-0.0020557977 0.11074805 0.00173641
0.055096447 -0.14221732 0.01087907
0.0099726394 0.0039314777 0.020127743
-0.006659247 0.15350614 -0.008673694
0.013181491 -0.14806417 0.050783206
0.067450866 0.066233426 0.018529445
0.027075753 0.12841508 0.1549567
-0.072409712 0.1687628 0.13591199
0.23223546 -0.018154088 -0.1839214
-0.12860003 -0.046924632 0.13589999
0.080972716 -0.02596179 -0.071430914
0.038212936 -0.041844938 0.078628212
-0.05134378 0.098956622 0.058548283
-0.086306468 0.010677241 0.10242327
0.16296992 0.012186624 0.054392867
0.078572586 -0.0098670647 -0.096091561
-0.10347208 -0.22615312 -0.095400251
-0.035494845 -0.11895654 0.21695274
0.022633679 0.093354248 0.12626724
0.074870318 0.087559402 -0.064759165
-0.18380889 -0.034169078 0.0093590394
-0.09309905 -0.067661285 0.069705531
0.014446929 0.040002797 0.054471709
0.019779816 0.018288331 0.059027083
-0.037583813 0.0014828816 -0.33019859
0.045774154 -0.20461094 0.17072713
-0.028079906 -0.20169994 -0.061888777
0.0032056109 0.031786043 0.0090202838
0.060264271 -0.10883895 0.20315924
0.24101746 0.0035405681 0.10040098
0.10277912 0.091889396 0.26298293
0.090058051 -0.027038235 0.011060492
-0.059209295 0.13652091 0.19355378
0.072909594 -0.208708 0.039042234
0.062659435 0.034032736 0.1185756
-0.019003134 0.02695132 -0.040682409
0.036767922 0.1302167 0.060733095
-0.018024877 -0.06099477 0.056633499
0.034421433 -0.095520228 0.06290637
-0.015667384 0.07700374 0.14181742
-0.21858935 -0.016274735 -0.073501594
-0.17092575 -0.095777303 -0.018706873
-0.15484747 -0.21469781 0.27428707
0.048684467 0.0013571344 0.050544143
0.014111601 -0.029471602 0.071600899
-0.12148564 -0.036504161 -0.13884267
-0.0095512718 -0.095536247 -0.16258398
0.041952819 0.070101127 -0.092306107
-0.045810435 -0.068566978 -0.06014435
0.059302844 0.029446192 -0.093291208
-0.18057048 -0.097132757 0.061015643
0.18352012 -0.016027682 -0.15600708
-0.022475004 0.095735662 0.044017397
-0.18881601 0.034501456 -0.060185313
0.070100754 0.050107781 0.26876208
-0.075891227 -0.11116783 -0.088052392
-0.13128395 -0.13476519 -0.09497951
-0.095768616 0.12358698 0.16739953
0.028538052 -0.040367775 0.053287789
-0.014843415 -0.12815571 0.15358017
0.064702861 -0.072727695 0.045112066
-0.031469628 0.059101079 0.21935093
0.0051002931 -0.015418261 -0.0022323765
0.1280048 -0.12531595 0.32695922
0.044612702 -0.079491116 0.28772351
0.12378129 0.23863778 0.17849058
0.13259515 0.00094501022 0.080327868
0.10219143 0.082677193 0.21902436
0.18298388 -0.022728026 0.025599271
0.085098095 0.04936526 0.17985353
0.061755687 0.14764316 0.24720734
0.11391868 -0.088534065 -0.10318604
-0.16028793 -0.15612009 0.099489883
-0.019097134 0.0057597496 0.23113248
-0.20435742 0.11894608 -0.099310465
-0.04258433 -0.19700451 0.055966213
-0.22303528 -0.054962214 0.070341274
-0.068777189 -0.10547366 0.07255628
0.081812508 -0.080331579 -0.04448913
-0.025173314 -0.058514453 0.031677626
-0.096518137 0.063112691 0.066282965
-0.0024646176 0.14260142 -0.033626579
-0.23247743 -0.013212588 0.14131545
-0.06249008 0.13375795 0.16475697
0.03094106 0.19247107 0.0025724112
-0.16541092 0.049858041 0.15850711
-0.043676469 0.24657038 0.10428195
0.041985072 -0.15205169 0.18456675
0.18428931 0.00072816387 0.2895005
-0.11819151 -0.11041713 0.21126994
0.02973019 -0.040155888 -0.13634929
-0.07076031 0.10475685 0.086007893
0.1298705 -0.0024496466 0.089639984
-0.054156646 0.052153334 0.19021225
0.072986811 0.016405061 -0.043195512
0.26787946 -0.12910023 0.060386192
-0.17804474 -0.13322167 0.10394923
-0.10692724 -0.017739296 0.021615243
0.18807355 -0.19708458 -0.032269284
0.024923181 0.15373708 0.087916777
0.12885615 0.11651341 0.064549789
0.018402848 -0.098197669 0.17218769
-0.072298087 -0.22767842 0.044387653
-0.095932975 0.12017746 0.13498089
-0.13225327 -0.094032198 0.08085949
-0.059413645 -0.10428192 -0.097900391
0.19365887 -0.11876544 0.048085541
-0.059889004 -0.21813491 0.13144499
0.061676472 -0.15474361 0.20355716
-0.040022917 -0.067479618 0.29997784
-0.092347875 0.035989389 0.13121499
0.065495037 -0.023523066 -0.0035831071
-0.27571028 -0.2480568 0.044301368
-0.11138129 -0.19522829 0.0023072809
-0.11443148 -0.21686782 -0.14833675
-0.095981486 -0.051292278 0.023607256
-0.034483042 0.065563165 -0.078021571
0.068989068 0.14601326 0.05702747
0.015466829 0.068092719 0.10820688
0.083775342 0.17468131 -0.09186206
-0.036218513 -0.08014746 0.22867233
-0.12159427 -0.091549926 0.11243169
0.033188824 0.12755901 0.18320015
-0.080545902 -0.078677602 0.0054672584
0.0059558079 -0.14869748 -0.11327626
-0.0035242103 -0.084032536 0.11601017
-0.032588437 0.30950439 0.12861618
0.2331506 0.052874576 -0.10040165
0.14198709 -0.044585597 0.076087579
-0.073955283 0.27930683 0.08633174
-0.09358418 -0.020194633 -0.055341098
-0.12678316 0.0034336578 0.14621535
-0.05231275 -0.057666741 0.2591418
-0.045846 -0.081788093 0.027790038
0.063462608 0.0349725 0.04231903
0.098034352 -0.16607627 -0.013774976
-0.12332188 -0.05233844 0.072346464
0.11500401 -0.056688234 0.17910516
0.042435594 -0.15891454 0.19493786
0.020418203 0.20842716 -0.046404719
-0.080416374 -0.14745808 0.13486868
-0.053296417 0.073722288 -0.14424191
0.060679622 -0.11857884 0.0057004429
0.094787166 0.20638265 0.23472524
-0.016996851 -0.23567683 0.034751121
0.13126816 -0.060496066 -0.023893498
0.042909928 0.035769742 0.14505149
0.085318163 -0.095981196 -0.074676067
-0.10935795 -0.28908491 -0.048145607
0.079413466 -0.098155797 -0.047422964
-0.070913322 -0.23393813 0.11381924
0.22336392 0.021454856 0.042093761
-0.13820201 0.03835528 0.18364227
-0.030037217 0.069477901 -0.097706139
0.13747384 0.024164213 0.12619916
0.10444549 0.023581941 0.21026644
-0.19997856 0.051419355 -0.07246311
-0.13902861 -0.032559957 0.34443915
